ply
format ascii 1.0
comment PCL generated
element vertex 1089
property float x
property float y
property float z
property uchar red
property uchar green
property uchar blue
element camera 0
property float view_px
property float view_py
property float view_pz
property float x_axisx
property float x_axisy
property float x_axisz
property float y_axisx
property float y_axisy
property float y_axisz
property float z_axisx
property float z_axisy
property float z_axisz
property float focal
property float scalex
property float scaley
property float centerx
property float centery
property int viewportx
property int viewporty
property float k1
property float k2
end_header
-1.5843015 4.7540836 0.77702898 81 81 81
-1.672484 4.7262225 0.81939012 74 74 74
-1.5432328 4.8639002 0.80048692 67 67 67
-0.90249676 4.3676596 0.94320387 224 224 224
0.57845896 4.7941608 0.67387891 106 106 106
0.28347728 3.6903553 1.1448292 220 220 220
-1.0286824 4.9805226 0.4462873 151 151 151
-0.94354725 5.3141284 0.44929698 151 151 151
-1.6320359 4.5988455 0.47805318 57 57 57
-1.7077652 4.5885768 0.41153345 40 40 40
-1.5058308 4.6789513 0.63520736 67 67 67
-1.3986161 4.5902305 0.68541539 65 65 65
-1.7307476 4.4507799 0.4702687 41 41 41
-0.86146748 5.1326189 0.061558824 57 57 57
-1.0828788 3.7411587 0.62173855 102 102 102
-0.15487133 4.4838066 0.026283486 86 86 86
0.18444447 4.9999647 0.15402292 74 74 74
0.49697146 4.5100203 0.34631249 45 45 45
0.25130272 3.242991 0.46416238 115 115 115
-1.4354784 4.0976758 -0.016799824 102 102 102
-1.4532437 4.4402952 0.091311201 79 79 79
-1.8008547 4.4757962 -0.13579048 94 94 94
-1.0660931 4.1550741 -0.028487222 138 138 138
-0.78723276 3.4788229 0.055496257 173 173 173
0.58297342 3.8863587 -0.73221087 183 183 183
-0.065341622 3.4596186 0.046722393 135 135 135
-0.32470661 3.6491191 -0.011462825 195 195 195
-0.39367166 3.6508698 -0.16103567 155 155 155
-0.27778736 3.1327243 0.31779155 200 200 200
-0.31738794 3.1103563 0.26703647 120 120 120
0.025087187 2.888808 -0.018338816 113 113 113
-1.7012283 4.2308307 -0.68298626 138 138 138
-1.5529759 4.0243759 -0.50554752 186 186 186
-1.3427711 3.4870057 0.03679679 166 166 166
-0.92929751 3.2251594 0.033310097 177 177 177
-0.22017057 2.7446046 -0.015060562 138 138 138
-0.11081363 2.8637452 -0.061762709 135 135 135
-1.158489 4.6109366 0.80317563 186 186 186
-1.1092319 4.7474737 1.1499674 239 239 239
-1.186898 4.9946237 1.0774667 235 235 235
-1.2953687 5.0146208 1.0611544 236 236 236
-0.44525504 5.6108227 1.1688601 255 255 255
-0.8343429 4.5490756 1.0848781 230 230 230
-0.67845714 5.4249969 0.97832566 239 239 239
-0.86146325 4.6200733 0.84697038 238 238 238
-0.82182497 4.3154573 0.75206614 231 231 231
-0.79728919 4.4199162 0.94544905 227 227 227
0.26248795 3.6409414 1.0907431 189 189 189
0.77552754 4.9214644 0.91761285 26 26 26
-1.7433741 4.8161387 0.31767645 51 51 51
-0.46955729 4.699851 -0.010385293 108 108 108
-0.60697794 4.8852839 0.034977715 16 16 16
0.43003774 4.3725505 0.11061774 41 41 41
0.93076247 3.7134123 0.48496327 159 159 159
0.28031901 3.1938124 0.30185768 111 111 111
-0.65858066 3.9708588 0.029321356 111 111 111
-0.99776655 3.5652809 0.080602452 180 180 180
-1.1159505 3.6775625 0.065228745 162 162 162
-0.2016474 3.5708487 0.024815364 180 180 180
-0.44038063 3.6848216 0.061064046 184 184 184
-1.5181574 3.755682 -0.033960838 184 184 184
-1.3325233 3.6689556 0.04593144 174 174 174
-1.3096796 3.7424262 0.025238855 148 148 148
-0.98670518 3.2509937 0.027811034 189 189 189
-1.2603352 5.7648106 1.1016247 238 238 238
-0.60636622 6.4685822 1.1246556 233 233 233
0.25648928 4.8583064 0.82240236 197 197 197
-0.92878962 4.1427879 0.8035022 232 232 232
1.0736345 4.0329318 0.980079 200 200 200
0.098663464 3.5653358 0.84035832 98 98 98
0.24856885 3.6537223 1.1847721 225 225 225
3.0955546 3.9991236 0.75595808 53 53 53
-0.96316445 4.9024353 0.26033822 190 190 190
-1.1604617 4.4858737 0.68582082 152 152 152
-1.667291 4.7481451 0.34420207 33 33 33
0.85223341 3.5318611 0.51816702 183 183 183
-1.1714401 4.7527418 -0.047209281 207 207 207
-1.6271645 3.9686019 0.058308404 106 106 106
-1.8467329 4.9297042 0.081350073 46 46 46
-1.4473511 4.4283423 -0.062559381 98 98 98
-1.2444047 3.8505633 0.090209708 177 177 177
-1.3672439 3.8140025 0.054287534 148 148 148
-0.24054068 3.3954959 0.042181712 180 180 180
-0.29865515 3.7796369 0.023240609 197 197 197
-0.50721544 3.7499561 0.090834066 194 194 194
-0.39771503 3.0891259 0.078618154 148 148 148
0.35134181 2.7397544 -0.12099828 148 148 148
0.40285391 3.0858579 0.11544631 73 73 73
0.86899948 2.7684379 -0.14323975 135 135 135
-1.5995932 3.9906371 -0.11518563 145 145 145
-1.1029643 3.5335219 0.024362607 135 135 135
-0.70535636 3.2100623 0.065791413 163 163 163
0.077454872 2.5917246 -0.10226561 89 89 89
-0.19303435 2.9216316 -0.03465559 174 174 174
0.50742781 5.141326 0.67553377 187 187 187
-1.0394568 3.6987634 0.96775657 217 217 217
-0.060753934 5.2241397 1.1441718 228 228 228
2.0116994 6.3880973 1.4661528 100 100 100
1.0300673 4.0590029 0.8752147 219 219 219
3.5632386 4.6272411 1.9315262 40 40 40
-1.436932 4.6259761 0.60294127 58 58 58
-1.3966358 4.5069036 0.54460907 61 61 61
-0.66476232 4.4688725 0.090116188 130 130 130
-0.47130182 4.6663733 0.060542803 77 77 77
-0.086043693 3.3987484 0.80882621 9 9 9
-0.12010921 4.1744008 0.16680692 96 96 96
3.6451471 3.0560052 -0.21583034 96 96 96
-0.89810586 4.1063199 0.088949665 147 147 147
-0.74165875 3.8766005 -0.0072664195 158 158 158
-0.59738755 3.9919729 0.017172797 77 77 77
-0.58770078 4.3959579 0.026185317 119 119 119
0.26630676 3.8028686 0.052382689 113 113 113
-0.19336186 3.1023459 0.094620094 182 182 182
0.26589245 3.0051246 -0.022537725 161 161 161
0.78280371 2.9738266 0.053014319 176 176 176
-1.7675424 3.7480698 0.082176611 98 98 98
-1.3087505 3.6374671 0.044618171 158 158 158
-0.46420452 2.9728696 0.011567575 184 184 184
0.088112697 2.8207452 -0.037192602 161 161 161
-0.30721924 2.9243693 -0.063276783 194 194 194
-1.2607436 4.5739207 0.8143701 66 66 66
-1.1905206 4.9441195 1.1607976 226 226 226
-0.47384059 5.218915 1.1362787 223 223 223
-0.73380899 4.7017035 1.0083624 229 229 229
-0.08726804 5.8521662 1.0422345 217 217 217
-0.085198797 3.756999 1.2825933 28 28 28
-0.059224039 3.7096231 1.3085934 27 27 27
0.051321972 3.925034 1.3249565 234 234 234
-0.05510724 3.6147342 1.0586407 255 255 255
0.40656817 3.6850803 0.85356987 255 255 255
-0.052113552 3.6171777 0.85400742 63 63 63
3.4427676 4.3407817 2.1006949 128 128 128
3.4912691 5.1812391 2.03074 37 37 37
0.2446889 3.5428829 1.1978315 23 23 23
3.3893218 4.6167459 2.0439365 74 74 74
-0.33012328 4.2696505 0.11867706 106 106 106
-0.021604918 3.5449529 0.8479327 219 219 219
0.2067983 3.4426272 0.83282673 53 53 53
-1.326419 4.6157932 0.041799288 41 41 41
-1.3735843 4.4140525 -0.015480417 98 98 98
-1.6545018 3.9059305 0.10162561 92 92 92
-0.3857837 3.5320339 0.002322895 176 176 176
0.09399765 3.486927 0.010480803 162 162 162
-0.33028877 3.0415168 0.21878175 86 86 86
-0.45306578 3.7274523 0.15675186 169 169 169
-0.074329264 3.8342068 -0.12033071 186 186 186
0.27446029 2.9197247 0.014258844 148 148 148
0.5307073 2.7727351 -0.064122453 128 128 128
-0.60308009 3.0298734 0.10363643 188 188 188
-0.59831667 3.2783754 0.045470279 173 173 173
-0.7351175 3.0519114 0.065576777 191 191 191
-0.15114103 2.6508021 -0.00014503539 109 109 109
0.79504037 2.6025405 -0.21919312 104 104 104
0.041931465 2.9473491 -0.052796859 131 131 131
-0.97966236 5.1187906 0.78926933 214 214 214
-0.88113868 5.5141621 0.92121738 225 225 225
-0.90974629 5.1088424 0.83101743 212 212 212
0.47601673 5.0399504 0.63386291 173 173 173
0.23878671 5.6178994 1.3857569 216 216 216
-0.7528615 4.9000235 0.81523305 215 215 215
-0.38492659 4.6829953 1.1652836 220 220 220
-0.54760176 4.9315615 1.1898804 218 218 218
-0.60984844 5.0758548 1.2308431 227 227 227
1.3793563 6.4498239 1.7242911 218 218 218
0.2414526 4.1530643 1.3862088 83 83 83
1.0177394 3.9558229 0.92622787 41 41 41
2.9215453 7.319365 1.7018199 96 96 96
0.0093496321 3.7402642 1.3653338 235 235 235
3.1778812 4.8331442 2.1057327 176 176 176
2.7834547 4.8066802 2.0340989 43 43 43
3.4778881 4.5265622 2.0371358 13 13 13
5.3885703 4.2264891 2.6984229 183 183 183
2.3537645 4.2637944 1.9565235 83 83 83
3.440841 3.9517329 1.1276116 48 48 48
1.1896089 4.014153 1.375056 39 39 39
4.8938284 5.1532731 2.5922081 96 96 96
-1.2089374 4.5770388 0.19021879 65 65 65
-0.4777261 5.085762 0.076180741 129 129 129
0.34404209 4.9300056 0.30527815 185 185 185
-0.28354269 5.1547008 0.35615161 255 255 255
0.42940933 4.9355297 0.45037553 185 185 185
-0.74936336 4.8817873 0.054800909 15 15 15
-0.21216461 3.274307 0.56053156 123 123 123
0.40878201 3.5331485 0.57267392 94 94 94
0.011627579 3.453167 0.63624543 235 235 235
5.941143 4.0957179 0.56821638 132 132 132
0.31325844 3.3055952 0.58327067 176 176 176
0.64827508 3.239224 0.3992115 123 123 123
2.5001357 3.688318 -0.03677823 105 105 105
3.0334384 3.6444898 -0.069556132 80 80 80
-1.501991 4.2057524 0.032955211 96 96 96
-0.93512607 3.8263183 0.064362511 146 146 146
-1.1343324 4.0690389 0.013750655 120 120 120
-0.7594837 3.6151264 0.021409733 166 166 166
-1.0141606 4.1761985 0.075295791 132 132 132
-0.56178421 4.2128367 0.048172515 129 129 129
0.32119802 3.7319486 -0.02029218 117 117 117
-0.3841891 3.5351882 0.12121086 178 178 178
0.75489712 3.0150211 0.092153952 185 185 185
-1.479458 3.7013419 0.077926978 159 159 159
-1.3863202 3.5898571 0.060010713 166 166 166
-1.1687301 3.4012098 -0.0057790452 156 156 156
7.2079216e-05 3.1023681 0.00040708244 120 120 120
-0.66872817 3.2290716 8.7678359e-07 152 152 152
0.073988974 2.4507477 -0.15236641 98 98 98
-1.5258543 5.0433459 1.2659611 117 117 117
-1.0201398 5.4436269 1.2884233 225 225 225
-0.91047221 4.9163804 1.208738 221 221 221
-1.2556132 5.0055203 1.2042049 227 227 227
-0.72501791 4.9479313 1.2469969 223 223 223
0.28684089 5.3376198 1.3741665 211 211 211
-0.082866244 5.2062368 1.271073 222 222 222
-0.54121912 4.4884624 1.1244841 217 217 217
-0.49388856 4.740118 0.75490487 221 221 221
1.1498024 4.1285996 0.95970988 112 112 112
1.9504465 6.2808428 1.7633096 126 126 126
4.8588581 5.161952 1.5711595 46 46 46
-1.4149064 4.3076243 0.73731673 69 69 69
-1.5846641 4.5870285 0.34874198 51 51 51
-1.3201106 4.4933457 0.32655367 39 39 39
-1.4764501 4.4933453 0.4386172 51 51 51
-0.11568154 5.0786185 0.14087944 85 85 85
0.17629139 3.6426938 0.8939963 114 114 114
0.99561173 4.7406468 0.64191085 49 49 49
0.74710929 4.5785632 0.43788776 39 39 39
1.0121599 4.8505597 0.59961075 44 44 44
0.83366847 3.5586536 0.46289197 66 66 66
3.8348813 4.1406908 0.47793731 55 55 55
-1.2010577 4.1090608 0.093457207 102 102 102
-1.2476809 4.2197075 0.067982122 100 100 100
-1.3262939 4.29214 0.085275695 96 96 96
-0.82761455 3.8683269 0.073603794 129 129 129
0.32961571 3.8884501 -0.38399318 166 166 166
0.21294554 3.5369771 0.01306985 129 129 129
0.1411794 4.1498303 0.036313456 156 156 156
0.21381406 4.0522575 0.047636729 112 112 112
-0.16671355 3.3132005 0.057054024 152 152 152
1.7427115 3.2815204 -0.042329092 172 172 172
-1.8850319 3.921535 -0.18271412 80 80 80
-1.0825052 3.4953692 0.048813622 169 169 169
-0.92358893 3.44824 0.091605946 142 142 142
-1.3163351 3.4147744 0.072882101 142 142 142
-1.1015506 3.4297934 0.06268023 156 156 156
-0.97392946 3.29579 0.020922644 169 169 169
-1.2339842 3.626507 0.074340627 159 159 159
-0.84572715 3.1212196 0.043672901 163 163 163
-0.17230798 3.1053898 0.014481765 172 172 172
-0.60130447 3.0524871 0.053564172 180 180 180
-0.12920503 2.976548 0.089876816 142 142 142
0.23983113 2.9536061 0.0099801244 177 177 177
-0.045599755 2.9709039 -0.015029806 129 129 129
0.17857023 2.6034648 -0.006667512 100 100 100
0.16528772 2.6812174 -0.052673716 117 117 117
-0.82360446 5.576787 1.347869 229 229 229
-1.4354393 5.3107743 1.3245528 184 184 184
1.43528 6.1465268 0.76975536 189 189 189
-0.28514636 4.9476585 0.79394186 212 212 212
-0.66838723 5.0601654 1.3180771 217 217 217
-0.70051163 4.5191231 1.0993563 208 208 208
1.900169 6.907968 1.774871 210 210 210
-0.33755982 5.8612523 0.65795428 219 219 219
-0.81722516 4.8523307 1.289854 218 218 218
0.17645741 3.5796635 1.0865954 89 89 89
-0.10590091 3.5110152 1.0412325 255 255 255
0.57365638 4.7829461 0.76724005 42 42 42
3.5090661 3.9658494 2.2073188 163 163 163
2.5810049 4.2450123 1.2005367 27 27 27
-1.7175493 4.5761118 0.49790969 47 47 47
-1.7111051 4.564137 0.58926129 47 47 47
-0.68572563 4.3288736 0.37486687 112 112 112
-0.097769201 4.8623381 0.2916688 212 212 212
-0.4950045 5.4148116 0.19043665 226 226 226
0.058514729 3.3789048 0.54307407 47 47 47
1.0157455 4.7188511 0.56474042 35 35 35
1.5697144 3.6309998 0.37206814 112 112 112
3.4487112 4.0771403 0.64321697 54 54 54
-1.2363783 4.1307945 0.040988009 126 126 126
-1.4637191 4.4347529 0.18494932 38 38 38
-1.154394 4.1943302 0.084265158 110 110 110
-0.27793279 3.3040564 0.54199022 255 255 255
0.46542963 3.3711169 0.28276697 179 179 179
2.3904483 3.1974087 -0.00022442878 49 49 49
2.1547003 2.5255396 -0.30450609 103 103 103
-1.7786293 3.9693508 0.07075195 83 83 83
-1.3433131 3.6038983 0.053756576 179 179 179
-1.2135379 3.6822345 -0.020104544 169 169 169
-1.2666609 3.4694736 -0.024994629 132 132 132
-0.87443501 3.4557974 0.083130285 156 156 156
-1.1305493 3.3351512 0.016618473 149 149 149
-1.0692905 3.7356803 0.058433335 149 149 149
-1.0401721 3.3106475 0.065605089 163 163 163
-0.46716884 2.8732531 -0.028488176 136 136 136
-0.59176457 3.0113571 0.0088416161 174 174 174
-0.73692703 3.2009203 -0.011489767 159 159 159
-1.0931966 5.6602149 1.3592186 233 233 233
-1.2700671 4.7213678 1.1188033 234 234 234
-1.3407154 4.6010098 0.87255836 68 68 68
-1.4863271 4.5892739 0.93346274 63 63 63
-1.0475358 4.8723373 1.2091254 220 220 220
2.0986722 7.3833451 1.8215282 207 207 207
-0.88821065 4.5450001 1.1530311 226 226 226
0.34002876 5.3377438 1.1554456 212 212 212
-0.89688897 4.1222553 0.94508272 222 222 222
-0.10745039 5.1293063 0.90947372 218 218 218
0.03930318 3.6843982 1.1002823 126 126 126
2.3228216 6.6661272 1.9591672 174 174 174
0.17621881 3.7661171 0.8866123 73 73 73
0.20134588 3.5901093 1.1867062 234 234 234
-1.0394369 4.4191518 0.68354177 207 207 207
-1.4257275 4.5320935 0.7611407 65 65 65
-1.3173628 4.4789534 0.46479478 46 46 46
-0.42400903 5.0065341 0.11155967 143 143 143
-0.3352083 5.0338254 0.4815062 234 234 234
-0.67822945 5.0489802 0.13191752 93 93 93
0.52008772 4.5461073 0.2204629 34 34 34
1.2140057 4.3625846 0.05820201 43 43 43
-1.3710493 4.1787281 0.042900007 120 120 120
-1.0429846 4.0417566 0.029063625 136 136 136
-0.46662495 3.7688386 -0.05687942 133 133 133
-0.34990251 4.3064313 0.0094427885 126 126 126
-0.3016316 3.9385154 -0.1535541 169 169 169
-0.60150152 4.1583028 0.016725106 133 133 133
-0.79440707 4.103611 0.0094593586 143 143 143
-1.4811794 3.6776934 0.057462078 174 174 174
-1.5128573 3.83392 0.069807515 139 139 139
-0.94916677 3.4747236 -0.10059752 153 153 153
-0.76233685 2.9574828 0.14236264 180 180 180
-0.49675739 3.3528049 0.047362667 169 169 169
-0.39810279 3.0783541 0.016451938 153 153 153
-0.89640486 3.1373923 0.057332557 174 174 174
-0.79162049 3.2236655 -0.040831465 163 163 163
0.47352093 2.5000069 -0.10712387 103 103 103
-0.9099158 5.3159866 1.1652735 230 230 230
-1.210145 4.6275358 0.8736673 49 49 49
1.1267858 5.9499717 1.5375462 221 221 221
0.13242969 5.7328868 1.3409657 218 218 218
-0.56834441 4.679441 0.91453028 213 213 213
-0.65958351 4.4628339 1.1445607 218 218 218
-0.6799137 4.8661995 0.95009857 212 212 212
-0.51992494 4.6434207 1.2224331 209 209 209
2.4257255 4.6900182 1.6895549 130 130 130
6.9843607 6.1139436 1.8005284 31 31 31
-1.6729522 4.6560702 0.74349773 76 76 76
0.48179758 4.9105854 0.26725748 107 107 107
-0.16236624 5.0709772 0.0849915 153 153 153
5.7231455 3.9958434 0.68822944 105 105 105
-1.2458395 4.1390758 -0.003597992 130 130 130
-1.2059027 4.573235 0.095342144 36 36 36
-0.029819952 4.450881 -0.0326369 126 126 126
-0.22667363 4.3483748 0.0034022159 105 105 105
-0.73076069 3.8482578 0.084159896 126 126 126
-0.24920233 3.6757293 -0.042533297 174 174 174
0.19493666 3.8685808 0.045742553 126 126 126
-0.28345865 3.6457739 0.077894017 180 180 180
0.22506356 3.1486509 0.3906025 153 153 153
-1.4048011 3.7290697 -0.030028241 136 136 136
-1.4044249 3.5610304 -0.0041256123 142 142 142
-1.6214094 3.5649517 0.11818849 139 139 139
-0.74839741 3.5373833 -0.023363488 136 136 136
-0.73444289 3.1030734 0.089976415 163 163 163
-0.82110333 3.0663812 0.122833 178 178 178
-0.40407169 3.0468309 -0.014968055 182 182 182
0.068959564 2.8584611 0.015287322 126 126 126
-0.39867628 2.8231959 0.021158798 156 156 156
-0.39325342 2.7269549 0.002271933 153 153 153
-0.3550052 5.6787024 1.1481273 230 230 230
4.4444919 3.8394682 1.7835666 152 152 152
-1.4083222 4.4657488 0.84074944 77 77 77
-1.5129192 4.4557161 0.70828849 61 61 61
0.50673532 5.4790745 0.040668529 52 52 52
-1.2357669 4.2477584 -0.013990897 107 107 107
-1.3200543 4.5704374 0.19997375 42 42 42
0.056479238 4.0529089 -0.022617118 152 152 152
-0.074720085 3.482084 -0.021017926 173 173 173
0.020712417 3.8193319 0.019844098 142 142 142
-0.23299807 3.603951 0.066706583 155 155 155
-0.065679416 3.5916889 -0.047305603 175 175 175
-0.40573755 3.7561657 0.093036756 183 183 183
-1.5691214 3.7866125 0.035677832 168 168 168
-0.96790493 3.402909 0.060708862 129 129 129
-1.3053598 3.581012 -0.025806325 149 149 149
-1.1199853 3.6243281 0.062949285 138 138 138
-0.80207473 3.1280692 0.10250102 183 183 183
-0.80210388 3.1220605 0.050800126 162 162 162
-0.86033845 3.2286763 0.12469099 149 149 149
-0.48491111 3.1720781 0.049987655 152 152 152
-0.31651446 2.8872745 0.004961235 138 138 138
-0.95312339 5.1090479 1.0829308 232 232 232
-0.41475788 4.6901674 1.0237727 219 219 219
-0.87737703 4.2751307 0.86333555 220 220 220
-1.1147234 4.7981825 0.53628039 91 91 91
0.23655257 3.5850589 0.64054811 255 255 255
-0.0076587307 3.3764925 0.69387859 117 117 117
-1.5342054 4.6115899 0.24963789 49 49 49
-0.29489294 3.2405562 0.36513236 128 128 128
0.23284256 3.6090019 0.017132087 141 141 141
0.097910337 3.245934 0.459066 102 102 102
-1.0111655 3.4992027 0.04163168 138 138 138
-1.1946037 3.7418494 0.022176547 152 152 152
-1.1538812 3.6248896 0.064316615 125 125 125
-0.71645057 3.3138077 0.017236991 141 141 141
-0.32734129 3.4171789 -0.0026724511 141 141 141
-0.42915919 3.2066293 0.10516219 141 141 141
-0.60335684 3.2440748 0.068655059 148 148 148
-0.83409613 3.070724 0.063117251 167 167 167
-0.11143722 2.9312439 0.12333743 158 158 158
-0.54009062 2.8285916 0.05050556 148 148 148
-0.057598684 2.784266 0.019341273 155 155 155
-1.2570006 4.5262356 0.91201913 64 64 64
0.14132424 3.5624204 1.0151219 222 222 222
-1.5652664 4.5126653 0.50518507 64 64 64
-1.1994656 4.6107478 0.41945854 30 30 30
-0.82502174 4.5689893 0.60279322 234 234 234
-0.84777582 4.0723996 0.57591486 235 235 235
-0.77046371 3.8678539 0.74333394 210 210 210
0.010540083 3.3246613 0.58708125 128 128 128
0.38685212 3.6379893 0.53947961 235 235 235
-0.052191623 4.6896977 -0.030119436 101 101 101
-0.30565402 3.2207847 0.47759762 255 255 255
-0.29989484 3.0822508 0.25109002 105 105 105
-1.6413822 3.6412835 0.096525595 159 159 159
-1.5984707 3.7333121 0.10905646 103 103 103
-1.4845588 3.5527906 0.060912114 113 113 113
-1.3999724 4.1012344 0.030840321 116 116 116
-0.96638447 3.7118573 -0.1187873 135 135 135
-1.0595303 3.4044473 0.089742884 152 152 152
-0.17984065 3.1315205 0.10034655 159 159 159
-0.36088255 3.3451114 0.0071967072 145 145 145
-0.50134671 2.7655215 0.045588415 135 135 135
0.072233282 2.8657587 -0.08983852 152 152 152
-1.3092504 4.6265841 0.93646282 43 43 43
-1.4016023 4.6365643 0.90031856 69 69 69
-0.75028288 5.2552996 0.99711508 226 226 226
-0.59541535 4.7713876 0.19184904 146 146 146
-0.28755388 5.6708493 0.39125738 255 255 255
0.15093462 6.5314965 -0.18677582 226 226 226
-0.99510598 3.9811609 0.74680811 232 232 232
-1.3285524 4.5655193 0.036442559 55 55 55
-1.3968897 4.4540725 0.24732809 48 48 48
-1.5997264 4.4565697 0.31261423 36 36 36
-0.79538107 4.0305495 0.075898334 125 125 125
0.34243238 3.6443539 0.017316265 108 108 108
-0.28006652 3.1570876 0.2214592 236 236 236
1.2408012 2.7955828 -0.095180288 132 132 132
-0.86786962 3.4229903 0.068514213 128 128 128
-1.1061814 3.6204317 -0.087059155 146 146 146
-1.0271885 3.7763855 0.074375734 125 125 125
-0.33974692 3.0688775 0.12668709 167 167 167
-0.62145764 3.1968334 0.059975367 146 146 146
-0.24835087 3.8212025 -0.26838592 128 128 128
-0.56438464 2.9663045 0.054812234 170 170 170
-0.19370469 2.8973715 -0.00070126593 167 167 167
-0.22951853 2.9972243 0.10946672 163 163 163
-1.1214006 4.7449217 0.32039228 33 33 33
-1.5925943 4.6039801 0.57615525 50 50 50
-1.3095815 4.6967783 0.78731161 52 52 52
-1.5533658 4.6156478 0.72758603 62 62 62
-0.72609788 5.7375298 0.31786218 207 207 207
0.52147132 4.3763404 0.10973243 40 40 40
1.2514201 4.6099286 0.69208461 47 47 47
0.84225971 4.552124 0.67313385 45 45 45
-0.63562703 3.7451227 0.025106652 148 148 148
-0.22442786 3.1270773 0.31151196 177 177 177
-1.7374127 3.9567676 0.13584433 69 69 69
-1.4783502 3.5244703 0.02334605 134 134 134
-1.4056318 3.8829188 0.058715146 159 159 159
-1.4069985 3.8333511 0.049160521 134 134 134
-1.4193046 3.6913948 0.064381048 159 159 159
-0.95557082 3.3154068 0.084191248 159 159 159
-0.92114592 3.6892316 0.071152195 141 141 141
-0.45035946 3.2021949 0.076387629 118 118 118
-0.47623768 3.1216476 0.027780874 166 166 166
-0.54893541 2.8542786 0.085153922 162 162 162
-1.1830924 4.70157 0.92576265 176 176 176
-1.6250905 4.7777481 0.98392189 142 142 142
-1.6295154 4.6753917 0.86877614 72 72 72
-0.7325539 4.3915863 1.0366707 225 225 225
0.41502869 4.7597737 0.90327394 50 50 50
-1.125894 4.7520099 0.38637272 36 36 36
-1.4379255 4.6286125 0.50634068 54 54 54
-1.7013793 4.5637393 0.63470924 64 64 64
-1.3520864 4.5946918 0.62999946 61 61 61
-1.2450141 4.5443959 0.66087979 52 52 52
0.023438921 4.7197628 0.11236887 20 20 20
0.042456996 3.2270358 0.49343964 153 153 153
-1.667159 4.4384251 0.21511166 29 29 29
-0.95197719 3.751677 0.087584481 135 135 135
0.1155531 3.4735913 0.049340408 139 139 139
-0.31773356 3.1152782 0.27751508 196 196 196
0.20481768 3.7243099 0.095075771 106 106 106
-0.57745838 3.6258881 0.098512396 185 185 185
1.0775847 2.9773543 0.068559572 176 176 176
-1.5964363 3.5129952 0.081259474 128 128 128
-1.5678273 3.8343947 0.043029945 96 96 96
-1.4779757 3.933558 0.052016299 108 108 108
-1.411965 3.8505521 -0.014495033 146 146 146
-1.6288217 3.5587244 0.075644895 128 128 128
-1.1968043 3.5782876 0.06334196 150 150 150
-1.1495023 3.39469 0.045407932 116 116 116
-0.91179276 3.5115626 0.060600501 173 173 173
-1.1117442 3.4627404 0.059369545 167 167 167
-1.037851 3.4933367 0.091356501 161 161 161
-1.0464171 3.6172705 0.0099163475 153 153 153
-0.53705782 2.9509242 -0.042802352 176 176 176
-0.086040109 2.8598309 -0.063587561 125 125 125
-0.39477965 2.9453549 0.034141462 150 150 150
-0.61137521 4.6895461 0.97501898 221 221 221
-0.14230968 3.5107975 0.99426371 236 236 236
1.9492159 3.652319 1.0327482 28 28 28
-1.1414871 4.5384402 0.62377948 176 176 176
-1.4175917 4.4981236 0.34088418 47 47 47
0.23189701 4.6940455 0.66975093 107 107 107
-0.62417841 5.020164 0.43156114 255 255 255
-0.053918596 3.3848987 0.73346376 176 176 176
-1.5974053 4.4387479 0.094877705 50 50 50
-1.5896561 4.0791688 0.09180592 91 91 91
-1.4372393 4.0346527 0.048796218 118 118 118
-1.3637698 4.4883909 0.28764996 60 60 60
-0.27464217 3.2343619 0.32167724 120 120 120
0.19223228 2.9382136 0.070292756 163 163 163
-1.5054867 3.5964351 0.02329777 127 127 127
-1.307436 3.8331566 0.055434804 137 137 137
-1.4242214 4.0023875 0.029727025 133 133 133
-1.683726 3.7691863 0.080737934 107 107 107
-1.0105416 3.6128514 0.088321671 141 141 141
-1.2761985 3.3652027 0.09302114 148 148 148
-1.2706105 3.3408949 0.078047976 127 127 127
-1.2120366 3.2922337 0.080565616 130 130 130
-0.84422982 3.6050291 0.073434338 141 141 141
-1.1357532 3.214031 0.10708885 152 152 152
-0.78046155 3.134763 0.13431178 178 178 178
-0.70887333 3.2486269 0.083279058 166 166 166
-0.64656174 3.057276 -0.02029063 183 183 183
0.46342924 2.6183453 -0.17947353 102 102 102
-0.24098676 2.9218042 -0.2178147 176 176 176
-1.3302171 4.6168165 0.96952277 177 177 177
-1.5520809 4.579854 0.82514518 66 66 66
-1.0142417 5.0608449 0.84893626 210 210 210
-0.81717438 5.0501876 0.9607724 229 229 229
0.40029749 5.0192361 1.2000451 224 224 224
0.42066932 4.5870018 0.81439865 30 30 30
-1.63958 4.4850512 0.35340044 38 38 38
-1.6518492 4.4475913 0.54726732 43 43 43
-1.4579643 4.5978956 0.33562985 55 55 55
0.040089756 4.6123943 0.28989276 36 36 36
-1.2631704 4.0262122 0.051958065 123 123 123
-1.475016 4.0263457 0.058256131 123 123 123
-0.9109807 3.9804192 0.090321466 133 133 133
-0.61952752 3.7418916 0.081753954 177 177 177
-1.1896242 3.7290752 0.1510307 133 133 133
-0.47225603 3.5406196 0.20107071 190 190 190
0.069738716 3.5908322 0.077401325 144 144 144
-0.11688171 3.1483991 0.39651057 123 123 123
-1.3795218 3.5719588 0.069887504 123 123 123
-0.73725271 3.5207467 0.058838826 144 144 144
-0.82826185 3.4212461 0.074418351 155 155 155
-1.1439042 3.3759158 0.086551353 126 126 126
-0.87841314 3.2133522 0.071399793 182 182 182
-1.5539286 4.5592656 0.90113604 56 56 56
-1.2061131 4.6360278 0.8210023 51 51 51
-0.66015768 4.5549164 0.70635456 238 238 238
-1.1431063 4.827364 0.47480533 198 198 198
-0.6556952 4.6827931 0.56355864 255 255 255
-0.88290268 4.5677862 0.43441764 220 220 220
1.0806841 4.2620168 0.099594161 45 45 45
0.40556815 4.1421876 0.12687139 82 82 82
-1.5247456 4.0968475 0.058072787 89 89 89
-0.81780976 3.7220001 0.10578983 143 143 143
-0.66453528 4.3003473 0.10345964 117 117 117
-0.90758139 3.7818139 0.093130514 136 136 136
-0.1718639 3.7404423 0.11808859 143 143 143
-0.30523959 3.1729493 0.20964871 126 126 126
-1.0059096 3.3436778 0.064265475 147 147 147
-1.102126 3.3852067 0.074728057 166 166 166
-1.1348803 3.7046738 0.063954458 109 109 109
-0.97391647 3.4692352 0.09025763 158 158 158
-1.2368946 3.535522 0.061691802 122 122 122
-0.33767709 3.3590326 -0.0351546 143 143 143
-0.084571518 3.3529174 -0.33038357 194 194 194
-0.32494882 2.9731932 -0.11063685 173 173 173
0.14183749 2.8798816 -0.60917175 162 162 162
1.1719614 2.7822294 -1.2925569 129 129 129
-1.0633423 5.0161252 0.72871971 151 151 151
0.61689258 4.6183071 0.92763704 52 52 52
1.322986 4.5845189 0.84090036 60 60 60
-1.4811831 4.5648217 0.61782908 57 57 57
-1.6542923 4.4776402 0.38556656 38 38 38
-1.6712559 4.5406666 0.71320099 47 47 47
-1.5650288 4.5002432 0.40422472 47 47 47
-1.7281957 4.4909596 0.42069307 45 45 45
0.086567 4.6168938 0.10037772 22 22 22
-0.72627252 5.0803542 0.49131891 239 239 239
0.3024672 4.526813 0.45002225 28 28 28
0.38382965 4.4311752 0.37471703 52 52 52
0.045342654 3.3744581 0.56352371 122 122 122
-1.2353718 3.9876857 0.065826222 129 129 129
-0.4971092 3.8383098 0.045639019 171 171 171
-1.1637776 3.9237223 0.057291429 147 147 147
-1.069382 3.9774761 0.073413834 120 120 120
-0.64025658 4.0702653 0.077461287 151 151 151
-0.96805817 3.8370671 0.10126542 120 120 120
-0.80311853 3.5638499 0.095733508 155 155 155
-1.0069437 3.6516693 0.08399646 140 140 140
-0.88770771 3.7142482 0.09565489 155 155 155
-0.24148118 3.1916282 0.0065791435 129 129 129
-0.093416139 3.3847568 -0.26668468 163 163 163
-0.34332764 3.0057576 0.061727982 102 102 102
-1.5727476 4.7478924 1.0387174 198 198 198
-1.0672771 3.8654733 0.82987058 234 234 234
0.30303898 4.5409155 0.70660937 109 109 109
-1.5720036 4.4591098 0.35803643 52 52 52
-1.2930351 4.5649662 0.61734611 52 52 52
-1.5053582 4.4911871 0.54776603 54 54 54
-0.93264318 4.4761348 0.62027162 238 238 238
-0.33134311 4.6602373 0.043441933 89 89 89
0.16150054 4.0420904 0.078407452 117 117 117
-1.4935665 4.1166401 0.055043977 104 104 104
-1.3105234 4.2383504 0.10790007 85 85 85
-1.1184642 3.9667251 0.086104318 133 133 133
-1.1684031 3.8917809 0.048684519 160 160 160
-0.49253991 4.0858417 0.047733229 127 127 127
-0.85977674 4.1508751 0.11453436 164 164 164
-0.45362487 4.0081725 0.095454261 160 160 160
-0.069863878 3.3158495 0.0035969443 156 156 156
0.17109104 3.4387777 -0.04655816 152 152 152
-0.34881812 3.4115202 0.038305085 168 168 168
-0.12349668 3.4679742 0.051459651 172 172 172
0.49385563 2.9537239 0.097749397 164 164 164
-1.2949256 3.7098138 0.061846118 164 164 164
-1.5829359 3.8925219 0.059629481 112 112 112
-0.95819986 3.5274341 0.066071615 141 141 141
-0.86347008 5.1462464 1.1104654 238 238 238
-0.24559532 3.4785657 1.0865273 236 236 236
-1.2740134 4.4492798 0.27794215 35 35 35
-1.6732712 4.5138903 0.3182312 34 34 34
-0.46755585 4.3861213 0.060420316 98 98 98
0.54545218 4.3851337 0.0055604405 87 87 87
-0.32878527 3.2833552 0.52526778 255 255 255
0.32348472 3.8867273 0.13161664 77 77 77
-1.5293264 4.0649967 0.032400291 118 118 118
-1.7025259 4.023191 0.052430909 115 115 115
-1.1849744 4.4808621 0.0080268802 103 103 103
-1.5581095 4.0685067 0.1072899 87 87 87
-1.0715022 4.0155201 0.094991669 169 169 169
-1.1132078 3.7445073 0.064904377 189 189 189
-0.77550572 4.2792859 0.12723719 121 121 121
0.43094316 3.5979521 -0.43334332 173 173 173
-1.4874359 3.8331738 0.021321459 121 121 121
-0.84601289 3.3397174 0.10740875 161 161 161
-1.4380288 4.58922 1.0039703 241 241 241
4.4267616 3.8170033 2.0005102 163 163 163
-1.5669793 4.4539294 0.27234003 47 47 47
-1.271644 4.5597177 0.30335596 49 49 49
-1.5241284 4.4680786 0.37931189 59 59 59
-0.70272911 4.2361574 0.38970646 139 139 139
-0.65999317 4.744638 0.12996148 33 33 33
-0.92909324 4.4551587 0.52294689 240 240 240
-0.63253194 4.4321375 0.14148907 93 93 93
-0.96010339 4.3349304 0.51076019 240 240 240
0.65314901 5.2808623 0.22633152 193 193 193
0.75158638 4.1210222 0.062117439 70 70 70
0.20507601 3.292727 0.58891827 57 57 57
0.098910138 3.123456 0.36561665 93 93 93
-1.2308223 4.4553208 0.15558957 40 40 40
-1.1781679 3.9427385 0.082990333 139 139 139
-1.0723954 3.5722635 0.12362652 168 168 168
-0.83436024 3.7705541 0.092296049 143 143 143
-0.86953336 3.6695709 0.064524695 135 135 135
0.0056645195 3.8619306 -0.23558225 204 204 204
-1.3501866 4.5979052 0.95415622 64 64 64
-1.5718682 4.2824678 0.76374722 64 64 64
-1.6686062 4.5813608 0.89286697 68 68 68
-1.5834818 4.6909275 0.76360786 68 68 68
-1.2229081 4.5262794 0.29200777 37 37 37
-1.3585098 4.4880486 0.37734291 46 46 46
-1.6429677 4.5531058 0.62063658 46 46 46
-0.28300682 4.4635963 0.13453369 97 97 97
0.34328234 4.4533434 0.3277919 136 136 136
-1.3749518 4.0594063 0.051821869 129 129 129
-1.3270694 3.9418101 0.077885672 103 103 103
-1.4215351 4.1958442 0.10954641 103 103 103
-0.84178287 3.5522799 0.088066325 186 186 186
-0.75043142 4.0481591 0.094096646 176 176 176
-0.099920519 3.3723345 0.080926761 173 173 173
-0.72726154 3.4566779 0.074298844 165 165 165
-0.62250215 3.542134 0.087480351 132 132 132
-0.70620823 3.6541746 0.070074186 144 144 144
-0.1909488 3.1503363 0.10441105 110 110 110
-0.9312855 4.9532323 1.1378969 237 237 237
-1.3130997 4.5464063 0.72539729 53 53 53
0.77446043 4.4102626 0.66505176 46 46 46
0.41083443 4.4994974 0.58993155 48 48 48
-1.0699368 4.8456006 0.42753842 143 143 143
-1.2695727 4.5332451 0.57670903 42 42 42
-1.6904287 4.4848223 0.55594534 51 51 51
-0.69589287 4.6343031 0.081002399 55 55 55
-0.82264322 4.9700928 0.1526985 82 82 82
0.25689831 4.7363605 0.44106862 103 103 103
-1.7583789 4.0700455 0.094134375 81 81 81
-1.1789182 4.253665 0.10164689 99 99 99
-1.6916528 4.2046995 0.070174381 73 73 73
-1.1297125 4.2133145 0.1083592 123 123 123
-0.69105691 4.0650597 0.066039309 160 160 160
-0.76097649 3.8590033 0.077205643 143 143 143
-0.84699565 3.9767237 0.078744873 132 132 132
-0.94523007 4.1285853 0.090393767 164 164 164
-1.1368412 3.8528862 0.09656857 123 123 123
0.10709013 3.6510541 -0.32804838 156 156 156
0.060199458 3.6050348 0.027149601 139 139 139
-0.28898123 3.2554843 -0.079155102 168 168 168
-0.67953569 3.4632034 0.0042439527 160 160 160
-1.5032358 4.6695738 1.120361 172 172 172
-0.90051758 4.8084335 1.1599768 237 237 237
-0.72193009 4.6080451 0.7588554 230 230 230
2.6200497 4.9798222 0.6051991 52 52 52
1.199278 4.4682131 0.74133372 56 56 56
-1.7740611 4.5816865 0.5077396 48 48 48
-1.0217202 4.74933 0.31139919 152 152 152
-0.68675721 4.8206096 0.16848533 140 140 140
0.58197737 4.383256 0.13098161 48 48 48
0.40366849 4.1954374 0.12592427 80 80 80
0.41348207 4.6385837 0.53756118 31 31 31
0.81919611 3.9703231 0.19855462 36 36 36
-0.14100081 3.2844958 0.51281202 161 161 161
-1.6700246 4.266777 0.11322884 75 75 75
-0.62780166 4.2031178 0.14718036 123 123 123
-0.016338205 3.7260621 0.083161995 148 148 148
-0.6709004 3.5751011 0.32481858 195 195 195
0.02679082 3.7047718 0.1243739 120 120 120
-0.33598912 3.2067246 0.43853369 169 169 169
0.25273511 3.0185556 -0.2024764 112 112 112
-1.5272181 4.7065001 1.2155601 141 141 141
-1.204973 4.6002145 0.9487161 84 84 84
-1.4673814 4.7789392 1.0488682 255 255 255
-1.3865467 4.5749755 0.88687509 60 60 60
-1.3761902 4.6046963 0.99827123 255 255 255
-1.5213466 4.6429 0.74425864 78 78 78
0.48182976 4.6317468 0.95264953 218 218 218
1.393133 4.6741152 0.66337866 64 64 64
1.2335042 4.4513812 0.65436637 48 48 48
1.0283214 4.5818996 0.84699184 54 54 54
-1.0947361 4.780396 0.48460642 133 133 133
-1.4257817 4.6544795 0.54888254 60 60 60
-1.746125 4.6669898 0.63232195 44 44 44
0.27538294 5.7378812 0.31984726 233 233 233
0.10700466 4.0750341 0.1850801 99 99 99
0.058913928 3.2768676 0.39752355 99 99 99
-1.4404086 4.1249986 0.074457392 121 121 121
-1.3514529 4.0420752 0.062368792 127 127 127
-1.8161676 4.4424901 0.088941738 56 56 56
-1.4765465 4.4413362 0.25345644 44 44 44
-1.4605591 4.477222 0.19555078 42 42 42
0.1339781 4.151875 0.049238663 130 130 130
-0.12162494 4.0533519 0.077138767 133 133 133
-0.04593413 3.6711502 0.090588018 175 175 175
-0.00045783498 3.1110582 0.30421016 97 97 97
0.52268255 3.7881029 -0.19605304 124 124 124
0.93052226 3.6673808 -0.22932924 121 121 121
-1.6251334 4.6260729 0.97942483 190 190 190
-1.4647483 4.7884045 1.2677922 121 121 121
-1.5183383 4.8300748 0.91962564 99 99 99
1.9010069 4.7936459 0.85125613 61 61 61
-1.4738384 4.5679493 0.77058268 89 89 89
-1.6271241 4.4935336 0.80050671 69 69 69
-1.5093601 4.6148381 0.6338073 64 64 64
-1.7805647 4.5505862 0.5736323 44 44 44
-1.2229707 4.4323578 0.68141133 61 61 61
-1.3202775 4.5524926 0.75326037 40 40 40
-1.7366211 4.7051144 0.52847463 42 42 42
-0.24761689 5.0437293 0.38473931 236 236 236
-0.62246406 4.8859668 0.19674651 106 106 106
-1.6068456 4.4458022 0.068151042 49 49 49
-1.4629506 4.1751933 0.10365073 109 109 109
-1.8243905 4.6805897 0.33806893 40 40 40
-1.3535357 4.4418025 0.15024464 28 28 28
-1.7956078 4.4884396 0.3625209 40 40 40
-0.84744269 3.8993342 0.13712232 131 131 131
-1.0177894 3.9892929 0.11573981 134 134 134
-0.66903305 4.400022 0.096417472 134 134 134
-0.64626551 4.1154103 0.11020665 154 154 154
-0.35061476 4.4007115 0.038652461 127 127 127
-0.17623195 3.5387511 0.088207468 146 146 146
-0.75730717 3.7129426 0.077757165 142 142 142
-0.44355339 4.0248976 0.14545892 173 173 173
-0.11902744 4.1473675 0.09398286 142 142 142
-0.3272762 3.1688066 0.36353567 239 239 239
-0.059014492 3.2538896 0.18451409 142 142 142
-0.19559887 3.447042 0.13216589 178 178 178
-1.5880716 4.1739221 0.069236204 109 109 109
-1.5833399 4.8216791 1.0961385 230 230 230
-1.7227221 4.5944629 0.93835872 80 80 80
-0.99041218 4.7523842 1.1796117 229 229 229
-0.57581437 5.128828 1.1378551 215 215 215
-0.92587227 4.9623656 1.2121243 229 229 229
-0.87911224 4.7796268 1.1952451 229 229 229
-1.4753578 4.580677 0.81404608 95 95 95
-1.1461685 4.7321844 0.45376536 35 35 35
-1.390238 4.5387774 0.75931507 80 80 80
-1.5168314 4.7349896 0.79154783 103 103 103
-1.7330979 4.4935884 0.56814706 57 57 57
-1.2958528 4.5232019 0.55374706 66 66 66
-0.27044699 4.9980345 0.17177235 55 55 55
-0.49294642 4.7849889 0.18488251 157 157 157
-0.5131653 4.8528366 0.20512138 111 111 111
-0.73722428 4.5618286 0.56980371 255 255 255
-0.35356516 6.1454597 0.57008475 212 212 212
1.2676543 4.5459723 0.49347755 46 46 46
-0.15844224 3.3031006 0.57483768 111 111 111
-1.8394651 4.6276484 0.42440698 57 57 57
-1.7205802 4.4404588 0.30959222 42 42 42
-1.2991962 4.4732914 0.30134133 46 46 46
-1.3131951 4.384912 0.29108337 44 44 44
-1.2608012 4.2476254 0.1338719 111 111 111
-1.3011736 4.4531331 0.21510278 40 40 40
-1.7862318 4.4138627 0.18072204 38 38 38
-1.3410375 4.4505076 0.22924821 35 35 35
-0.81407112 4.1419935 0.14422916 127 127 127
-0.60976076 4.3621769 0.15750681 109 109 109
-0.88031489 4.0006871 0.085419819 127 127 127
-1.0903453 4.147017 0.11249743 134 134 134
-1.2200118 4.1379852 0.099802539 121 121 121
-0.42883316 4.3807077 0.1187868 113 113 113
-0.71353775 3.7650282 0.10432492 149 149 149
-0.4493359 4.121232 0.14746784 141 141 141
-0.59417844 4.0234756 0.12759273 177 177 177
0.20368099 4.150907 -0.0074647837 130 130 130
-0.475719 3.9346454 0.18579517 164 164 164
-0.44307074 4.0572987 0.18780766 127 127 127
-0.59884638 3.8061392 0.12216394 167 167 167
-1.3307198 4.0632429 0.12309162 121 121 121
-0.99487865 3.798506 0.089043126 141 141 141
-0.77671003 3.5807385 0.11127172 145 145 145
-1.2869544 4.4862967 1.136369 224 224 224
-1.4618044 4.5846395 0.91199553 97 97 97
-1.7365632 4.6165709 0.97032154 105 105 105
-0.73149371 4.8979435 1.2688622 255 255 255
-0.91182023 4.9413295 1.1175618 231 231 231
-0.6647591 4.8483777 1.2606807 228 228 228
-0.80063301 4.7634554 1.1587119 214 214 214
-0.67419696 4.5690651 0.92678797 211 211 211
-1.6414959 4.783658 0.73865038 99 99 99
-1.2304157 4.5353079 0.54576182 53 53 53
-1.456829 4.562109 0.71012062 93 93 93
-1.7228857 4.6047726 0.79926848 91 91 91
-1.7999319 4.8826351 0.53407651 78 78 78
-1.4789956 4.49261 0.48464546 71 71 71
-1.7952188 4.5132155 0.60715872 63 63 63
-1.5892512 4.7047515 0.52485472 78 78 78
-1.7659047 4.6364245 0.6701988 67 67 67
-0.32507539 4.6949844 0.28114334 103 103 103
0.42084315 4.8039322 0.54354185 93 93 93
-0.05081274 4.6739535 0.28113475 80 80 80
-1.2697722 4.4105377 0.12882148 182 182 182
-1.6147194 4.4684515 0.39332095 51 51 51
-1.4077541 4.4911246 0.38996789 53 53 53
-1.8579739 4.6715164 0.30575225 35 35 35
-1.8087522 4.4532828 0.30112115 27 27 27
-1.6602237 4.4617939 0.44349721 45 45 45
-1.7931738 4.4983535 0.50807339 49 49 49
-1.0365114 4.2161326 0.1299967 121 121 121
-0.72538459 4.1262355 0.12880324 145 145 145
-0.86881024 4.263442 0.11854349 121 121 121
-0.83815914 4.0460463 0.085805222 141 141 141
0.11979303 4.0187407 0.042094272 134 134 134
-0.54547393 3.9515662 0.1253805 145 145 145
-0.19799523 4.1675301 0.11195551 124 124 124
-0.47435078 4.0725665 0.10453622 162 162 162
-0.11518373 4.0752602 0.15363841 138 138 138
-1.1425153 3.9764428 0.10638164 149 149 149
-1.1242704 4.0997572 0.073921368 145 145 145
-0.79700673 3.6066408 0.10996698 156 156 156
-1.3552738 4.493618 1.1761063 232 232 232
-1.6108828 4.3794045 1.286291 255 255 255
-1.7708232 4.6208591 0.97038531 98 98 98
-1.4036247 4.162622 1.1055307 221 221 221
-1.3892475 4.1599889 1.1117932 234 234 234
-1.5592229 4.7393804 1.3373537 179 179 179
-1.5021476 4.6316047 1.2895135 112 112 112
-0.10734292 5.3414755 0.95817548 202 202 202
-0.63524926 5.1575327 0.89176536 216 216 216
-0.83520997 4.8797011 1.1049069 199 199 199
0.45907733 4.8528767 0.89981645 170 170 170
-1.469885 4.5217395 0.54509455 66 66 66
-1.6743093 4.5264893 0.69331473 95 95 95
-1.5064654 4.5398273 0.62283194 89 89 89
-1.7470819 4.7262878 0.71676457 82 82 82
-1.394811 4.587616 0.46564105 71 71 71
-1.7253337 4.5688505 0.85483116 98 98 98
-1.7617904 4.4303398 0.68878144 71 71 71
-0.86430299 4.6749215 0.45796677 209 209 209
-0.78772289 5.1751499 0.62209594 202 202 202
-0.19347295 5.1851225 0.51016098 211 211 211
-0.94225585 4.6587386 0.64419198 204 204 204
0.40979886 4.7337117 0.33989188 80 80 80
0.2878055 4.4490709 0.43328121 112 112 112
0.37018105 4.4062943 0.31686541 41 41 41
-1.5755416 4.4534411 0.2124816 39 39 39
-1.7410141 4.3999343 0.21485595 35 35 35
-1.2381879 4.4670963 0.24451821 45 45 45
-1.8325226 4.4337358 0.21639304 29 29 29
-1.2511711 4.4799705 0.35345641 47 47 47
-1.8731213 4.4625716 0.33626351 45 45 45
-1.5887598 4.4373422 0.18669687 43 43 43
-1.8508197 4.5235429 0.42313513 45 45 45
-0.95046306 4.1909137 0.14002495 138 138 138
-1.0199008 4.1821671 0.12646697 124 124 124
-0.92055935 4.1351514 0.1186813 145 145 145
-0.63836449 4.795558 0.18199669 148 148 148
-0.61206126 4.0276785 0.187815 163 163 163
-0.57544923 3.9529021 0.095597133 169 169 169
-0.002654417 4.0892067 0.18519793 110 110 110
-1.2664442 4.0255399 0.097682044 141 141 141
-1.5423657 4.60361 0.97263294 119 119 119
-1.1903228 4.998848 1.0060906 225 225 225
-1.1101792 4.8771324 1.2732975 232 232 232
-1.3628451 4.6532025 1.2651491 205 205 205
-1.1653686 4.9925065 1.3149575 227 227 227
-0.67269468 5.0283909 1.2962365 216 216 216
-0.49436414 5.7461281 1.3454467 213 213 213
-0.70398545 5.0107155 1.0648695 206 206 206
-0.87888151 4.9550614 1.3502381 213 213 213
-0.62249643 5.0642362 0.78835738 208 208 208
-0.6991936 4.9783344 1.3983945 205 205 205
-0.65869933 4.5960231 0.83040345 199 199 199
-0.61641717 5.18223 0.89254016 201 201 201
-0.6699149 4.8505349 1.3230815 210 210 210
-0.38789716 4.9863358 0.8227663 208 208 208
-0.58093458 5.1309395 1.0091467 213 213 213
-0.076305844 3.9186766 1.309815 255 255 255
-1.6155765 4.480598 0.7470426 69 69 69
-1.4124589 4.5271978 0.61471713 78 78 78
-1.2090312 4.6237798 0.77876329 41 41 41
-1.6080146 4.5198336 0.62066478 71 71 71
-1.6716297 4.570787 0.84781623 100 100 100
-0.32013157 4.8549228 0.42524889 255 255 255
-0.93302429 4.9565573 0.86445588 211 211 211
-0.26310614 5.9726834 0.51313186 215 215 215
-0.35139364 4.7044249 0.33948097 195 195 195
-0.77959096 5.1139889 0.88750666 215 215 215
-1.0035832 4.5819702 0.63812673 196 196 196
-0.44510725 5.528276 0.68498486 208 208 208
-1.5370586 4.46631 0.30153468 39 39 39
-1.6829495 4.4280791 0.24415712 41 41 41
-1.4032519 4.5050068 0.45062503 69 69 69
-1.4787862 4.4816403 0.40282884 67 67 67
-1.7818775 4.6548648 0.41952708 52 52 52
-1.3395679 4.513834 0.40535447 54 54 54
-1.6510307 4.4864125 0.24266939 41 41 41
-1.8981988 4.416038 0.27332243 27 27 27
-1.3533155 4.4168377 0.12100409 62 62 62
-0.74334192 4.1118898 0.10003673 151 151 151
-0.61153615 4.8085861 0.24659853 73 73 73
0.087406024 3.8183677 0.12138782 135 135 135
-0.67464828 4.0220847 0.081735715 151 151 151
-0.45128113 4.0410547 0.09679006 156 156 156
-0.18813345 4.301836 0.11259739 119 119 119
0.38068134 4.1360469 0.11581455 100 100 100
0.11863676 3.6259611 -0.049105782 138 138 138
0.095097035 3.7534788 0.10718219 138 138 138
-1.4848475 4.1900334 0.1213796 103 103 103
-1.4487668 4.3451176 0.12229566 96 96 96
-1.8829743 4.2666016 0.16446684 48 48 48
-1.9616379 4.3356342 0.07423602 59 59 59
-1.5509267 4.332653 0.12265317 80 80 80
-1.5468482 4.132545 0.11536519 114 114 114
-0.61143678 3.8835611 0.078200385 164 164 164
-0.79745239 3.7649865 0.10132562 135 135 135
-1.3196189 4.3306723 1.1577137 228 228 228
-1.3742477 4.6267552 1.0036579 228 228 228
-1.4918587 4.8585806 1.3993418 142 142 142
-1.5492804 4.805871 1.385468 145 145 145
-0.72452116 4.5035896 1.0475029 195 195 195
-0.74046654 5.1397395 1.042908 225 225 225
-0.77678549 4.7846603 0.91658992 202 202 202
-1.0263354 4.8776369 1.3345075 222 222 222
-0.26246899 5.3097382 1.4419348 190 190 190
0.88967597 4.6514277 0.91645616 77 77 77
1.4764812 4.6804161 0.89619696 72 72 72
-1.7570155 4.5554061 0.8405453 85 85 85
-1.275396 4.5288439 0.62737703 50 50 50
-1.7587655 4.5515447 0.76525605 70 70 70
-1.3902973 4.5114169 0.58726841 62 62 62
-0.60791612 4.6445189 0.82954991 199 199 199
-0.52834618 5.6182995 0.4886975 204 204 204
-1.0051076 4.6597924 0.81090474 219 219 219
-0.6699366 4.6997948 0.65101296 217 217 217
0.34258544 4.7391658 0.44546321 94 94 94
0.62906182 4.519546 0.5917064 48 48 48
-1.4625518 4.4537849 0.38181081 62 62 62
-1.5914373 4.4942489 0.48154613 50 50 50
-1.881616 4.5030627 0.40120849 41 41 41
-1.7917304 4.4886951 0.55403137 58 58 58
-1.8354056 4.5840778 0.5369159 35 35 35
-1.2953894 4.5040536 0.49052861 58 58 58
-1.5121144 4.4762182 0.42564484 65 65 65
-0.31145707 4.7394352 0.11909454 22 22 22
-0.98079967 4.8003016 0.18498336 53 53 53
-0.86699182 4.0964689 0.14872794 159 159 159
-0.66666979 4.2396975 0.11261128 113 113 113
0.19556825 3.9795074 0.13832395 110 110 110
-0.5736897 3.6923087 0.32359079 142 142 142
-1.6258448 4.1361089 0.13457428 85 85 85
-1.3790445 4.1381521 0.12640451 145 145 145
-1.6788393 4.388 0.10535721 81 81 81
-0.98147136 3.8904102 0.1112666 106 106 106
-0.72622049 3.8253295 0.13036673 139 139 139
-0.69296265 3.7027652 0.093132541 136 136 136
-0.67296124 3.7250822 0.13045411 148 148 148
-1.5703337 4.6962337 1.2142885 180 180 180
-1.3009764 4.3394933 1.2072085 230 230 230
-1.0882708 4.9456749 1.4179164 219 219 219
-1.3076746 4.4465289 1.2834258 229 229 229
-1.3520892 4.2387228 1.1685911 228 228 228
-1.5974227 4.4911451 1.3786135 255 255 255
-0.70672572 5.1314702 1.2897433 211 211 211
-0.38155538 4.7966924 1.074412 202 202 202
-0.64113319 5.3119974 1.5232166 209 209 209
-0.2314689 5.0785122 0.90516317 186 186 186
-0.25825092 5.0426579 1.3589542 200 200 200
-0.068843424 5.2630143 0.98710799 204 204 204
-0.91823739 5.6715593 1.0843656 216 216 216
-0.38243291 4.7961345 1.4382383 195 195 195
-0.83657336 4.8825908 1.4281595 222 222 222
-0.4495464 5.6937914 1.5366797 209 209 209
-0.10253954 3.8680048 1.3461695 63 63 63
-0.11993283 3.8942907 1.3435967 102 102 102
-0.38640383 4.292356 1.4055862 202 202 202
1.4185151 6.3258772 1.2287664 186 186 186
1.7965667 4.3153367 1.8438027 105 105 105
-1.5148304 4.5973668 0.89747173 124 124 124
-1.4248824 4.5454984 0.69892502 75 75 75
-1.7703655 4.5349259 0.91309094 113 113 113
-1.6139001 4.4938526 0.6600253 77 77 77
-1.513832 4.6892853 0.75750941 121 121 121
-1.7948076 4.589839 0.70226282 93 93 93
-0.71317369 5.3958693 0.63879639 197 197 197
-0.7382139 4.4364924 0.74801075 194 194 194
-0.92017549 5.2497854 0.90059686 213 213 213
-0.42054695 4.8179607 0.86366618 206 206 206
-0.83658105 4.272264 0.85406458 197 197 197
-0.87232846 5.1186538 0.65995747 185 185 185
-0.74649 4.4549432 0.80448633 202 202 202
0.64474392 4.6211972 0.77706641 65 65 65
2.214309 4.5535622 0.95112616 57 57 57
2.1093473 4.6608009 0.86277002 47 47 47
-1.2613585 4.4771805 0.39232609 57 57 57
-1.8342088 4.4191589 0.50571638 43 43 43
-1.610864 4.4644775 0.35357973 43 43 43
-1.013634 4.3506446 0.13410644 33 33 33
-0.97111368 4.3888917 0.12793522 47 47 47
-0.58901262 3.7129786 0.275655 153 153 153
-0.38193575 4.472578 0.12580507 93 93 93
-1.836198 4.4259076 0.25569859 33 33 33
-1.7469715 4.2807198 0.11483566 72 72 72
-1.9288931 4.363657 0.02670346 75 75 75
-1.1818609 4.2077847 0.11531745 136 136 136
-1.0274892 3.8938675 0.09501414 133 133 133
-0.57286018 3.7582088 0.14778058 149 149 149
-0.66570467 3.6406507 0.084751591 139 139 139
-0.76215172 4.0138588 0.084939465 127 127 127
-1.6131307 4.642839 1.0684987 229 229 229
-1.4129016 4.786262 1.1800846 208 208 208
-1.3687195 4.8920622 1.4784034 190 190 190
-1.2586282 4.7042122 1.4140493 210 210 210
-1.1504189 4.6927586 1.4138507 222 222 222
-1.1874509 4.7382169 1.4396009 229 229 229
-1.3446113 4.6025033 1.3357511 197 197 197
-1.3578731 4.8545308 1.3983002 189 189 189
-1.2385784 4.8367119 1.4607657 199 199 199
-1.3585932 4.3829308 1.2341648 219 219 219
-1.34183 4.673461 1.2304246 218 218 218
-1.1980435 4.7777371 1.3803978 218 218 218
-0.68540311 4.6200261 1.060071 189 189 189
-0.93315506 4.7459435 1.0960459 224 224 224
-0.79028624 4.808166 1.4277867 197 197 197
-0.84876955 5.6971025 1.4183357 210 210 210
-0.79142064 5.6887259 1.5120506 216 216 216
-0.69812989 4.8152399 1.2009579 193 193 193
-0.68784547 4.8387504 1.4025993 215 215 215
-0.30698293 4.7993574 1.1392854 185 185 185
-0.88260466 5.2566452 1.4359218 210 210 210
-0.85672259 4.256762 1.1226976 197 197 197
-0.9157936 5.0639558 1.4655056 212 212 212
0.015352178 3.9461222 1.2680756 222 222 222
-0.089054272 3.9095623 1.3811427 99 99 99
0.1838747 5.3898678 1.2340983 206 206 206
1.1627702 5.5100818 1.2431155 199 199 199
2.4096613 6.1770253 1.9968696 255 255 255
-1.4102687 4.5934639 0.9387815 114 114 114
