ply
format ascii 1.0
comment PCL generated
element vertex 1085
property float x
property float y
property float z
property uchar red
property uchar green
property uchar blue
element camera 0
property float view_px
property float view_py
property float view_pz
property float x_axisx
property float x_axisy
property float x_axisz
property float y_axisx
property float y_axisy
property float y_axisz
property float z_axisx
property float z_axisy
property float z_axisz
property float focal
property float scalex
property float scaley
property float centerx
property float centery
property int viewportx
property int viewporty
property float k1
property float k2
end_header
1.1654449 -3.15171 1.8243507 185 185 185
1.5697842 -3.1605005 2.1033692 188 188 188
1.7260976 -3.2223883 1.998287 200 200 200
0.77945071 -3.2157109 1.7629807 255 255 255
0.3254261 -3.2335026 1.8511134 255 255 255
0.43465066 -3.2377324 1.6505595 247 247 247
0.67968243 -3.2237582 1.7723757 255 255 255
0.36868671 -3.2129202 1.616963 215 215 215
-0.73188823 -3.2016511 1.561588 255 255 255
-0.74970311 -3.245486 1.6305453 118 118 118
-1.0629481 -1.6478624 1.5329944 52 52 52
-1.0687819 -1.338617 1.6622784 153 153 153
1.395998 -3.2104628 1.2730044 197 197 197
0.76654679 -3.1960921 1.0970654 217 217 217
-0.94105196 -3.2349815 1.2254971 159 159 159
-0.8465277 -3.2266285 1.1881979 214 214 214
1.6660228 -3.2563221 0.36462373 174 174 174
1.3927909 -3.2382479 0.37278157 158 158 158
0.78483939 -3.243715 0.36109978 196 196 196
0.80204087 -3.2388537 0.46832979 194 194 194
0.40710735 -3.1987345 0.41715896 114 114 114
-1.1043981 -1.3781672 0.71290213 15 15 15
1.2825001 -2.2431147 0.10190577 184 184 184
0.65178686 -1.853617 0.10618324 212 212 212
1.1425275 -2.9854174 1.9233309 255 255 255
1.3006802 -3.2090354 1.8802727 233 233 233
1.1888014 -3.2166069 1.9093127 219 219 219
1.7899448 -3.1256325 1.6859704 187 187 187
1.3476781 -3.215256 1.6554933 200 200 200
0.31328937 -3.2233152 1.7733084 255 255 255
0.61973393 -3.2293444 1.7661147 253 253 253
-0.9548229 -3.2546117 1.7769881 206 206 206
-0.68433517 -2.3363793 1.7356673 222 222 222
-1.0843081 -1.6798434 1.532029 52 52 52
-1.0716175 -1.5050007 1.7700803 123 123 123
1.8321017 -3.220371 1.1818937 192 192 192
1.2535946 -3.2098548 1.1233823 154 154 154
0.26249686 -3.2251222 1.1781279 255 255 255
0.80409563 -3.2248285 0.86157072 205 205 205
-0.96851945 -3.1601527 1.1458634 122 122 122
-0.93356884 -3.2100332 1.2274427 159 159 159
-0.78558803 -3.202106 1.122187 169 169 169
-0.84849221 -3.2266355 1.2108469 173 173 173
-0.29820624 -3.1708789 0.74754184 171 171 171
1.7208161 -3.2446551 0.39724225 163 163 163
1.0733036 -2.1615977 0.11076576 224 224 224
0.77826828 -3.2128623 1.7902061 239 239 239
0.53704226 -3.2379427 1.8714498 216 216 216
0.61599249 -3.203202 1.8183424 255 255 255
0.41815978 -3.1445518 1.3807131 174 174 174
0.63559258 -3.1784172 1.3886138 141 141 141
-0.79432791 -3.2338376 1.8312045 223 223 223
-0.73270547 -3.2315974 1.8538939 227 227 227
-1.1742539 -1.4000615 1.7491447 131 131 131
-1.7668865 -2.3301537 1.8178831 40 40 40
-1.1853679 -1.4189074 1.7641518 151 151 151
1.7812092 -3.2281857 1.244205 189 189 189
-0.17970435 -3.236244 0.74309903 187 187 187
-0.78487718 -3.2124865 1.2520068 200 200 200
-0.41844773 -3.2063515 0.92296243 145 145 145
2.0249932 -3.1560235 0.13749641 121 121 121
1.6588329 -3.2439461 0.25318062 118 118 118
0.56089532 -2.4186041 0.074206121 116 116 116
-0.77796674 -1.2824324 1.0376157 120 120 120
0.95821118 -1.9823117 0.14116532 182 182 182
1.3627855 -3.201606 1.9667951 227 227 227
1.8681897 -3.2649529 0.79329807 182 182 182
-0.73923326 -3.2448409 1.1280917 214 214 214
0.61834294 -3.2134857 0.4505986 186 186 186
1.0702003 -1.9215599 0.12745965 190 190 190
1.9005679 -3.3029182 2.2090614 202 202 202
1.6386371 -3.2915776 2.1715243 190 190 190
1.9181912 -3.245538 2.0100737 179 179 179
-0.19968577 -3.2261426 1.9819957 255 255 255
0.57075667 -3.2519956 1.746053 231 231 231
-0.29531136 -3.2159662 1.8841966 247 247 247
-0.30242398 -3.2434702 1.9785179 255 255 255
-1.1364195 -1.4885073 1.7714695 150 150 150
-1.15379 -1.5846395 1.8714381 156 156 156
-1.252612 -1.408621 1.7281022 54 54 54
1.4216549 -3.2162602 1.4144468 200 200 200
1.3618163 -3.2363701 1.4532437 166 166 166
1.2392645 -3.2194474 1.3341625 189 189 189
1.0360913 -2.9006906 1.4367032 160 160 160
0.73761934 -3.2147636 1.0059237 248 248 248
0.7049374 -3.2197115 1.4111978 128 128 128
0.30004761 -3.2572205 1.4100524 126 126 126
0.79860246 -3.2405276 1.2687708 196 196 196
-0.079109393 -3.2566025 0.97399288 113 113 113
-0.92121083 -3.249949 1.3599716 209 209 209
-1.0531111 -1.7037129 1.5216641 95 95 95
-1.8959033 -3.2460604 1.0226685 174 174 174
0.78519124 -3.2378623 0.58337015 250 250 250
0.78529787 -3.2380652 0.38901973 198 198 198
0.37328681 -3.2465274 0.43849641 182 182 182
0.41224059 -3.2540462 0.52452928 130 130 130
0.68317223 -3.2425537 0.58783388 228 228 228
0.19511959 -3.2332668 0.47146088 179 179 179
-2.6033366 -2.9220345 0.525204 54 54 54
0.88354379 -2.1217663 0.10050238 227 227 227
0.99060035 -2.2131557 0.10683621 255 255 255
1.0358369 -2.1739874 0.13239032 243 243 243
0.91782761 -2.1340747 0.12215293 255 255 255
0.7610358 -2.0951495 0.088137634 255 255 255
0.78689426 -2.1879907 0.090974696 255 255 255
0.60891521 -1.9895136 0.085158594 95 95 95
1.5811292 -2.9685662 1.8263185 190 190 190
0.24149893 -3.2258923 1.4388077 176 176 176
0.68720043 -3.2425838 1.919103 228 228 228
0.25217488 -3.2121363 1.8798492 236 236 236
-0.86356556 -3.26266 1.6967734 196 196 196
-1.2311466 -1.4110779 1.7190684 134 134 134
1.5641375 -3.2328053 1.0050539 179 179 179
0.30600643 -3.210958 0.68053782 232 232 232
0.36639461 -3.2030582 0.64759302 203 203 203
0.56697971 -3.2398686 0.56204146 198 198 198
-0.12299419 -3.2286065 1.1100857 171 171 171
0.31586471 -3.2490416 0.59563422 218 218 218
0.20804617 -3.2189312 0.745969 186 186 186
-0.11816264 -3.2463281 0.64506382 195 195 195
-0.063808046 -3.2448046 1.2635127 149 149 149
-0.74526465 -3.2060289 1.2558802 157 157 157
1.6440543 -2.571454 0.11333967 150 150 150
1.2412236 -3.270119 0.29636139 208 208 208
-3.0556257 -2.897537 0.21021223 66 66 66
1.2778322 -2.1817632 0.11968214 213 213 213
0.96558511 -1.956545 0.096455403 255 255 255
1.1642094 -3.1426082 1.9527951 255 255 255
1.8277959 -3.2882004 2.248584 223 223 223
1.1179563 -2.9022343 2.132457 152 152 152
1.2893372 -3.2055628 1.8213357 203 203 203
0.97886342 -2.9364808 2.110054 200 200 200
1.9246285 -3.2486293 2.0826771 202 202 202
1.2820255 -3.1878982 2.0475557 199 199 199
1.7476326 -3.2547865 1.9937059 181 181 181
0.31069928 -3.2160978 1.9122512 225 225 225
0.73489052 -3.2093999 1.884956 224 224 224
-1.2341564 -1.4251493 1.6855304 32 32 32
1.1439537 -3.2281122 1.0440367 197 197 197
1.1691493 -3.2514932 1.4914433 172 172 172
1.9939971 -3.1888964 1.2242666 74 74 74
1.7415191 -3.2372315 1.0738482 237 237 237
1.834304 -3.2168593 1.0297351 174 174 174
1.4551322 -3.277251 1.2236935 178 178 178
0.15609781 -3.2434366 1.0803696 200 200 200
0.2110628 -3.2409327 0.9225595 247 247 247
0.2612851 -3.2388384 1.0039302 218 218 218
0.78003639 -3.2140465 1.4822404 208 208 208
0.27453345 -3.2331233 1.420619 157 157 157
0.35539526 -3.231674 1.38481 119 119 119
-0.17961942 -3.2306075 1.3435489 155 155 155
0.30850795 -3.2203374 0.9042145 196 196 196
0.57132512 -3.230175 1.3718234 172 172 172
0.68607688 -3.2345572 1.0346285 191 191 191
-0.47621641 -3.2386413 1.4705008 195 195 195
-0.9278937 -3.2253916 1.4033018 107 107 107
-0.40155661 -3.2415457 1.3269036 88 88 88
-0.88730186 -3.2416635 1.174915 158 158 158
-0.84372562 -3.2205026 1.2706941 160 160 160
-0.80070144 -3.2313664 1.4659276 166 166 166
-1.5927993 -3.3577185 0.90493739 125 125 125
-1.0974325 -1.687192 1.5051343 163 163 163
2.142576 -3.1725135 0.12964547 221 221 221
2.1950443 -3.2425203 0.49416214 78 78 78
1.2430654 -3.2326107 0.65663683 137 137 137
0.20932245 -3.2371557 0.61877996 235 235 235
0.69094825 -3.2485585 0.67614621 226 226 226
0.2636975 -3.2764053 0.37519157 184 184 184
-0.17543843 -3.2406669 0.59642708 185 185 185
0.43323615 -3.2340598 0.48779678 193 193 193
0.79211438 -3.2444191 0.65333825 206 206 206
0.69494355 -3.2553396 0.73075497 222 222 222
0.24863903 -3.2258821 0.61142415 207 207 207
-0.11682598 -3.2282512 0.59266651 195 195 195
-0.08754465 -3.2368858 0.41979486 149 149 149
-0.11909804 -3.2285576 0.5741446 198 198 198
-0.17946643 -3.2477388 0.33393008 164 164 164
1.1241274 -2.1993768 0.10257072 170 170 170
1.7464972 -2.3713152 0.093744762 146 146 146
1.2517112 -2.1340632 0.10443563 241 241 241
0.90508109 -2.1686728 0.085382707 255 255 255
-0.081834264 -2.3522284 0.1957829 179 179 179
1.427241 -3.2546072 2.0837054 223 223 223
0.46421054 -3.2349725 1.8660599 191 191 191
0.29210049 -3.2204964 1.5249107 129 129 129
-0.19963714 -3.2151475 1.8238661 172 172 172
1.1804658 -3.2359915 1.3992258 154 154 154
1.4216473 -3.2187138 1.4268079 222 222 222
1.0768474 -3.2168252 1.0687724 123 123 123
-0.18171547 -3.2295134 1.217486 183 183 183
-1.0803406 -1.7246921 1.4442856 50 50 50
1.6475294 -3.229804 0.50845963 149 149 149
0.99581993 -2.0952346 0.1176886 205 205 205
1.0570165 -2.262193 0.0995977 239 239 239
0.76165384 -2.0512862 0.099131115 255 255 255
0.82104021 -2.177866 0.12009449 231 231 231
0.4388577 -3.3648646 1.7626216 244 244 244
1.7015232 -3.1970189 1.0200957 236 236 236
1.7054591 -3.7014124 1.5530719 219 219 219
1.17372 -3.2219028 1.213773 204 204 204
2.063591 -3.1967542 1.123668 88 88 88
1.4921272 -3.240979 1.6825548 191 191 191
1.4605585 -3.2072697 1.409725 188 188 188
1.3850279 -3.2342055 1.6852777 190 190 190
0.15245092 -3.2177637 1.0701407 235 235 235
0.81652069 -3.2246068 1.0916501 228 228 228
0.21694371 -3.2270114 1.4826231 211 211 211
0.23476794 -3.2283361 1.3720454 140 140 140
0.19972785 -3.2066269 1.2714171 206 206 206
0.35216209 -3.2674067 1.0367368 192 192 192
-0.9063201 -3.2413893 1.2095339 188 188 188
-0.7081067 -3.7369988 1.5767449 166 166 166
-0.93125707 -3.3462844 1.3585932 208 208 208
-1.1438571 -1.7573901 1.598603 199 199 199
-1.1166267 -1.3458648 1.4450423 41 41 41
1.2352873 -3.2321889 0.75853783 168 168 168
1.7368299 -3.2556396 0.62976044 170 170 170
1.1240926 -3.2598393 0.75131822 179 179 179
0.78595966 -3.2320588 0.61236942 255 255 255
0.20452535 -3.2129655 0.66272408 203 203 203
0.69150418 -3.2541759 0.32707542 208 208 208
-0.057568498 -3.2493787 0.4978891 192 192 192
-0.74067003 -1.7158927 1.0730633 205 205 205
1.0750414 -2.1657598 0.10610539 187 187 187
1.2334048 -2.2187057 0.10214967 145 145 145
0.9264515 -2.3084652 0.09592367 255 255 255
0.96309686 -2.1280909 0.11141122 246 246 246
1.1831129 -2.233479 0.13878095 160 160 160
1.343191 -3.1965895 1.9268818 215 215 215
1.020376 -2.859952 2.1267991 243 243 243
0.21358909 -3.2258725 1.7582076 255 255 255
0.67895764 -3.305517 1.8073103 243 243 243
0.42863083 -3.219893 1.7407025 226 226 226
-0.62762111 -2.1825202 1.6987678 193 193 193
1.833389 -3.2156558 1.0306094 178 178 178
1.2605973 -3.2318447 1.3137206 116 116 116
0.78952605 -3.2313969 0.91398293 252 252 252
-0.081939384 -3.2302732 1.0714089 124 124 124
0.2208121 -3.2186737 1.0965937 190 190 190
-1.7238775 -3.3773165 0.89188838 121 121 121
0.31407478 -3.2223086 0.73387504 249 249 249
0.78492039 -3.2296801 0.61825573 255 255 255
0.37272277 -3.2270072 0.58907831 200 200 200
0.43361712 -3.2407632 0.49663734 203 203 203
0.74294215 -3.2374241 0.60971284 230 230 230
-0.081210881 -3.2397411 0.4008773 101 101 101
-0.10528825 -3.2493777 0.20960528 94 94 94
-0.057117984 -3.2438035 0.56577802 179 179 179
-0.5259946 -3.1947479 0.24996203 65 65 65
1.1683739 -2.1664822 0.11877043 180 180 180
1.1100304 -2.1094899 0.11456621 169 169 169
0.94880056 -2.1063604 0.097473152 83 83 83
1.2678155 -2.2227449 0.11654795 148 148 148
1.0569105 -2.259769 0.10308469 255 255 255
1.380335 -2.2696376 0.10924364 220 220 220
1.709546 -2.5702367 0.093449481 119 119 119
1.3454218 -3.1654172 1.9571259 221 221 221
1.9246725 -3.4079885 1.9031905 206 206 206
-0.2463655 -3.2208905 1.6546527 255 255 255
0.21835586 -3.2377405 1.564394 219 219 219
-0.19617222 -3.2295282 1.8676622 223 223 223
-0.20127232 -3.2140527 1.8252786 188 188 188
-0.9136548 -3.2391002 1.7997994 224 224 224
-1.2456295 -1.4005524 1.7271645 94 94 94
1.9595169 -3.214658 1.2746336 92 92 92
1.9481636 -3.2978387 1.1998838 171 171 171
1.2285063 -3.225899 0.7966429 173 173 173
1.1434032 -3.1681771 1.3440257 170 170 170
1.1442245 -3.311583 0.84560984 191 191 191
-0.2839233 -3.2168775 0.92511308 255 255 255
-0.23811749 -3.222136 0.91539317 252 252 252
0.43431681 -3.2269373 1.4320024 187 187 187
-0.41102293 -3.2287533 1.2693058 204 204 204
-0.11953803 -3.2020988 0.87353432 214 214 214
0.19289415 -3.227675 0.85743433 221 221 221
0.32113612 -3.2111011 1.2836751 204 204 204
-0.30161715 -3.2128799 0.87127686 152 152 152
-1.559817 -3.3110809 0.77249825 73 73 73
-1.6067407 -3.3021305 0.77559388 90 90 90
-1.5918016 -3.3011823 0.73121816 71 71 71
-1.3570517 -3.3158419 1.0256858 160 160 160
-0.84454221 -3.2081146 1.1604192 202 202 202
-0.95021278 -3.2887335 1.4204468 176 176 176
-2.614624 -2.9019206 1.3927845 33 33 33
1.6175796 -2.7270248 0.10321278 160 160 160
-0.23350011 -3.2762263 0.25114745 206 206 206
-0.23435943 -3.2562866 0.37243789 229 229 229
-0.0340278 -2.5983267 0.83273387 254 254 254
0.43104798 -3.2268136 0.56594849 178 178 178
-0.19587357 -3.2649291 0.21231037 81 81 81
0.17910042 -3.2114804 0.31219739 190 190 190
-0.19872145 -3.2435665 0.35569715 107 107 107
-0.22932902 -3.2750611 0.30020052 205 205 205
-0.15923811 -3.2594261 0.39130622 102 102 102
0.25177526 -3.2345526 0.25894034 176 176 176
-0.28285515 -3.2220449 0.35682797 176 176 176
-0.041488316 -3.1598468 0.18900067 133 133 133
-0.88480872 -1.2930374 1.0531474 166 166 166
-0.95070362 -1.3112466 1.0419372 155 155 155
-0.88692802 -1.3059345 1.0457244 166 166 166
-2.3069444 -3.1922557 0.18913984 49 49 49
-3.0986271 -2.8260853 0.16520369 12 12 12
-2.6196585 -2.946533 0.56864613 73 73 73
-2.4700518 -2.9220788 0.73565555 72 72 72
1.1653987 -2.2315192 0.11470187 188 188 188
0.74030101 -2.0650156 0.10698421 229 229 229
0.8246727 -2.0835369 0.027364142 252 252 252
0.99389952 -2.1303804 0.10300852 67 67 67
0.25504854 -1.7840023 0.090155967 188 188 188
1.2889768 -3.2040808 1.9672973 231 231 231
1.790712 -3.2301931 2.096395 198 198 198
1.3443178 -3.1969051 1.9271317 219 219 219
0.26230672 -3.2161171 1.9151154 226 226 226
-0.72840399 -3.2211328 1.7171015 216 216 216
1.7232101 -3.2202649 1.1206284 237 237 237
1.2304714 -3.2264316 0.91393709 238 238 238
1.7652899 -3.2255213 1.0313879 146 146 146
1.5234852 -3.2259879 1.235346 174 174 174
1.9771751 -3.2197821 1.2467554 48 48 48
1.4813633 -3.2301116 1.5527729 201 201 201
1.3171333 -3.2095129 1.5179374 198 198 198
1.1144868 -3.2245853 1.1066658 190 190 190
2.052335 -4.0903311 1.4889258 198 198 198
1.4096447 -3.1906707 1.2128986 183 183 183
1.2205553 -3.221411 1.1067815 172 172 172
1.0626534 -3.2243693 1.2312621 173 173 173
-0.1811253 -3.2180228 1.5506431 217 217 217
0.18809068 -3.2281115 1.4741676 210 210 210
0.7884866 -3.217876 1.2683295 211 211 211
-0.43214747 -3.2396545 1.2303474 217 217 217
-0.36322114 -3.2152421 1.4588219 174 174 174
-0.88799769 -3.2005873 1.5026765 126 126 126
2.2166886 -3.2374313 0.096662529 247 247 247
1.2331131 -3.2335594 0.79547757 173 173 173
0.30600902 -3.2046041 0.73848814 254 254 254
0.45731732 -3.2856312 0.75935334 221 221 221
-0.24274464 -3.226814 0.76909494 184 184 184
-0.24608013 -3.208569 0.67488807 154 154 154
0.38477531 -3.2540178 0.75781995 248 248 248
0.62579191 -3.2387502 0.75968826 220 220 220
-0.1830074 -3.2351518 0.6847769 191 191 191
0.21056065 -3.2301967 0.70418495 197 197 197
1.2362769 -3.2134426 1.6435397 243 243 243
1.6777856 -3.2249968 1.0035622 181 181 181
0.74828255 -3.2397392 0.90487349 255 255 255
0.75012362 -3.2413776 1.1696773 247 247 247
1.6185032 -2.7247312 0.099365778 160 160 160
1.5796089 -2.7369955 0.099265881 53 53 53
0.21420857 -3.2504935 0.69966304 197 197 197
0.30519661 -3.2132878 0.48367971 227 227 227
0.48343232 -3.2113938 0.71127564 200 200 200
1.7469723 -2.4838305 0.08880765 155 155 155
0.93512017 -2.6787255 1.5593485 240 240 240
1.5159265 -2.8994482 1.5517265 216 216 216
1.7600557 -3.2471654 1.5836952 237 237 237
1.2838306 -3.2514827 1.941087 255 255 255
0.89051795 -3.1973672 1.550082 213 213 213
1.2038602 -3.1990039 1.8923575 206 206 206
0.042214651 -4.8485928 1.5611881 255 255 255
0.21283318 -3.2231715 1.4826068 229 229 229
-0.1510938 -3.2000091 1.5031142 194 194 194
0.092376418 -3.2274504 1.5484804 210 210 210
0.3006601 -3.2003374 1.5046898 255 255 255
0.7436654 -3.2851186 1.5207475 163 163 163
-0.30237663 -3.2170131 1.8261919 249 249 249
-0.36907762 -3.1843407 1.8003793 235 235 235
-0.73828274 -3.2024806 1.558253 255 255 255
-0.62304789 -3.2076447 1.4787043 152 152 152
2.2998626 -3.1814079 0.75378674 98 98 98
1.076535 -3.2342579 1.1468343 196 196 196
1.1749508 -3.2375445 0.67176771 193 193 193
1.243328 -3.2153888 0.90020102 129 129 129
1.0805969 -3.0838056 1.1218508 205 205 205
-0.18558832 -3.2206876 1.2203206 234 234 234
-2.7460392 -2.9049492 1.405583 45 45 45
1.3496183 -2.1604419 0.1121921 111 111 111
1.6621516 -2.5296452 0.12520224 153 153 153
1.2858869 -2.269588 0.12628627 164 164 164
0.26206309 -3.268919 0.37893927 213 213 213
0.76129419 -3.1950631 0.38830626 199 199 199
0.68770421 -3.2439082 0.33091241 229 229 229
0.52193409 -3.2377529 0.17802244 122 122 122
0.67690188 -3.221916 0.47453994 248 248 248
0.71514261 -3.2407527 0.30318397 194 194 194
0.60277599 -3.2052824 0.39086533 198 198 198
0.39960065 -3.2704465 0.37149119 125 125 125
0.29632726 -3.1947124 0.23788404 174 174 174
0.5204038 -3.2371607 0.18681407 104 104 104
-0.7840507 -1.2552947 1.0391456 46 46 46
-2.3192809 -2.9061258 0.25111234 98 98 98
0.74150079 -1.8307031 0.13486665 255 255 255
0.97516739 -2.1109488 0.10029132 213 213 213
1.1070385 -1.8529797 0.11375321 255 255 255
0.65096837 -1.8215629 0.11752189 59 59 59
1.1347125 -1.9257518 0.11143274 255 255 255
0.4352372 -1.8795755 0.053118296 134 134 134
-0.079277739 -1.8369032 0.19951963 229 229 229
1.2916902 -3.2523472 1.6325617 255 255 255
1.5493801 -2.7483315 1.9371369 188 188 188
0.31143075 -3.2196467 1.6510299 253 253 253
1.0402225 -3.1927285 1.2619306 167 167 167
1.4004505 -3.2156959 1.2709808 212 212 212
0.31747186 -3.237021 1.5049394 255 255 255
0.27079305 -3.2412748 1.1061876 226 226 226
-0.23364997 -3.2240798 1.1066935 194 194 194
-0.53612751 -3.2402012 1.2356304 187 187 187
-2.6565294 -2.8904741 0.97380143 56 56 56
1.5849817 -2.7471864 0.096181042 61 61 61
0.082107842 -3.2131872 0.38792574 175 175 175
0.62564468 -3.2445111 0.37261641 198 198 198
-2.8815899 -2.6597698 0.1376642 18 18 18
0.8061229 -2.184649 0.11673892 255 255 255
1.7684134 -3.2069194 1.8899636 211 211 211
1.2324197 -3.201297 1.5581744 240 240 240
1.0722438 -3.2277372 1.150098 196 196 196
1.7929986 -3.2372 1.0507463 232 232 232
0.90311486 -3.2166202 1.5462034 213 213 213
-0.66187704 -2.6640229 1.5252085 242 242 242
1.9371381 -3.2391248 0.12592131 216 216 216
0.7404328 -3.230864 0.61172086 252 252 252
0.48275205 -3.2127917 0.74043417 211 211 211
0.36501238 -3.2127409 0.56676662 227 227 227
1.2951051 -3.2106256 1.9663017 234 234 234
1.1637264 -3.2043955 1.55018 207 207 207
1.2847975 -2.5801711 1.8910474 218 218 218
1.7206897 -3.226994 1.7118063 186 186 186
0.20332119 -3.1961057 1.7833533 255 255 255
0.76819944 -3.191262 1.5660607 216 216 216
-0.055622369 -4.5809479 1.5032345 229 229 229
0.6754238 -3.2018859 1.5139383 255 255 255
0.73279744 -3.2061574 1.9710763 224 224 224
-0.48195717 -3.2311318 1.4114436 215 215 215
2.0655105 -3.2015336 0.73465401 89 89 89
2.1553872 -3.192169 0.5157994 85 85 85
1.7914171 -3.230799 1.2853397 187 187 187
1.0435953 -3.208431 1.1024418 184 184 184
1.8425777 -3.2304339 0.80439156 184 184 184
-0.23845632 -3.2259171 0.91734582 255 255 255
0.6117 -3.2132361 0.57198888 255 255 255
-1.4439012 -3.3095269 0.74820828 83 83 83
-1.5182105 -3.2905099 0.69191688 87 87 87
-2.0856557 -4.3501215 0.48347646 77 77 77
-2.2294848 -3.3200207 1.0797809 136 136 136
1.7693707 -2.2167504 0.11809248 184 184 184
1.0825148 -2.1870263 0.11712456 60 60 60
0.62587422 -3.2199857 0.33833772 152 152 152
0.35308886 -3.2107298 0.23957968 185 185 185
-0.96527749 -1.2605199 1.0515676 108 108 108
-2.2969043 -3.2178926 0.25044173 47 47 47
-2.3041561 -3.1786423 0.13366419 19 19 19
-2.3424659 -3.2285929 0.2613982 57 57 57
-2.3028402 -2.6394854 0.15433693 74 74 74
0.3704834 -1.6659806 0.086689539 255 255 255
0.31876144 -1.6535922 0.10751767 92 92 92
0.43935242 -3.3086219 1.8113554 255 255 255
-0.39969337 -3.2290123 1.5021541 117 117 117
1.9886948 -3.2360356 1.2977184 255 255 255
2.076664 -3.2084827 0.73091465 89 89 89
1.1714885 -3.2393374 0.59322757 192 192 192
1.7888311 -3.2344298 0.91298014 187 187 187
-0.076036274 -3.217854 1.1483872 200 200 200
0.54697037 -3.194391 0.77039677 219 219 219
1.1048001 -2.2267864 0.11070872 255 255 255
0.5858047 -3.2216518 0.21859181 149 149 149
-0.82950717 -1.2464147 1.06612 168 168 168
-2.3058667 -3.2197874 0.14519358 85 85 85
-2.2953494 -3.2541976 0.19491911 81 81 81
0.66311377 -1.7591712 0.093339272 53 53 53
1.3897805 -3.1400604 1.9676527 208 208 208
0.36234379 -3.1961725 1.6113093 223 223 223
-0.48869038 -3.2169046 1.6365203 209 209 209
1.7226419 -3.2200403 1.1244473 241 241 241
2.2775331 -3.2011738 1.0093145 85 85 85
1.1878068 -3.2146308 1.1467391 115 115 115
0.68370229 -3.2167184 1.5122871 255 255 255
0.1942506 -3.2410381 1.4721166 233 233 233
0.25615695 -3.273972 1.3720504 155 155 155
1.1879916 -3.2161493 1.9443935 252 252 252
0.22573896 -3.2503331 1.7907046 255 255 255
1.242036 -3.220252 1.6446012 251 251 251
1.2085336 -3.2357612 1.534328 207 207 207
1.0644385 -3.22873 1.2518457 164 164 164
-0.32974458 -3.2241664 1.5183156 229 229 229
0.62520677 -3.2360444 0.351578 201 201 201
0.30703753 -3.2119606 0.60378224 231 231 231
1.241859 -3.2172213 1.8175581 243 243 243
1.3646564 -3.3528011 1.7540756 188 188 188
1.1761805 -3.2206259 1.4215823 168 168 168
-0.29189947 -3.2249055 1.884825 255 255 255
0.8086341 -3.2225516 1.4730078 219 219 219
0.67747968 -3.2059529 1.5080439 250 250 250
0.84266239 -3.2305346 1.0625968 255 255 255
0.35170233 -3.1777027 0.65290737 211 211 211
0.68218893 -3.2283175 0.73795933 243 243 243
0.85058415 -3.2517896 1.1066036 126 126 126
-1.4449739 -3.2664609 0.73591387 72 72 72
-1.4415457 -3.3022041 0.58827382 82 82 82
-1.323542 -3.2428422 0.78832161 97 97 97
-1.8079478 -3.1958144 0.63513184 106 106 106
-2.526613 -2.8986137 0.87545794 67 67 67
1.7691163 -2.4296987 0.073670097 146 146 146
1.0538305 -2.2839046 0.11823357 255 255 255
1.2310334 -2.1109958 0.1125452 255 255 255
0.98301685 -2.1996009 0.10837049 255 255 255
1.2216451 -2.1693525 0.12718213 49 49 49
-1.9318302 -3.222651 0.11697669 157 157 157
-2.6231167 -2.9468567 0.5571751 80 80 80
-2.6928029 -2.9205172 0.49176919 67 67 67
-2.7047231 -2.9496534 0.40397763 62 62 62
-1.9841383 -3.2569718 0.3407135 156 156 156
-2.3370736 -2.9188647 0.34217548 51 51 51
0.5615961 -1.8047706 0.090218969 219 219 219
1.0281425 -1.8524863 0.12000925 255 255 255
0.25541717 -1.7772344 0.093836196 204 204 204
0.32166189 -1.6469511 0.070868261 227 227 227
-0.25556552 -1.6132981 0.1979143 226 226 226
1.4721822 -3.2194748 1.5528679 202 202 202
1.495295 -3.2974548 2.0073705 204 204 204
0.29667896 -3.2253194 1.4634672 142 142 142
-0.48955408 -3.2126279 1.6339878 197 197 197
1.2618135 -3.217628 0.91926134 219 219 219
1.2490767 -3.244772 0.64839178 153 153 153
1.7932246 -3.2367876 0.78268605 175 175 175
1.5664396 -3.2351406 1.0077615 174 174 174
1.0934819 -3.2127092 0.64138412 195 195 195
1.7495794 -3.2588718 0.62942988 173 173 173
0.86589456 -3.2462633 1.0730274 255 255 255
0.79574335 -3.2385428 0.91223204 255 255 255
-1.4495881 -3.3203628 0.71907359 72 72 72
-1.5284917 -3.3430495 0.74554121 75 75 75
-2.6338954 -2.9601634 0.40719616 57 57 57
-0.11983727 -1.9543344 0.19302571 223 223 223
1.1646795 -3.2054405 1.5459757 194 194 194
-0.43500426 -3.213347 1.411049 222 222 222
0.4298608 -3.2230818 1.736012 233 233 233
1.8474034 -3.2370539 1.1732665 187 187 187
-0.25273746 -3.221827 1.271755 173 173 173
-1.5168397 -3.2730298 0.69629228 106 106 106
1.6852218 -3.2402322 1.0782131 188 188 188
1.2420241 -3.2144022 1.2675024 197 197 197
1.2409059 -3.2108681 0.89723694 134 134 134
0.37892064 -3.2259476 1.040284 203 203 203
-1.6594831 -3.2955909 0.76375902 61 61 61
-2.3955817 -2.9466605 1.3893121 62 62 62
1.7017821 -2.6702089 0.099561997 50 50 50
-0.079774238 -1.840798 0.19558322 230 230 230
0.73779792 -3.2212462 1.9143949 255 255 255
1.4414233 -3.2501318 2.0721579 227 227 227
1.7406718 -3.1752231 1.961868 201 201 201
-0.47802904 -3.2426558 1.5487262 232 232 232
-0.42760915 -3.2435515 1.4876541 244 244 244
0.74416041 -3.2260225 0.99989128 255 255 255
2.1470013 -3.2158403 0.87429178 92 92 92
0.75708652 -3.2398367 0.78860497 228 228 228
1.7817601 -3.2685895 1.0670319 236 236 236
1.0779437 -3.2448041 1.249455 167 167 167
1.7843218 -3.1719244 1.0234104 171 171 171
0.1847221 -3.178643 0.6278404 252 252 252
-0.93742055 -1.7483295 1.0811921 95 95 95
0.36555848 -3.2241652 0.90415323 224 224 224
0.20691769 -3.2297134 0.92400676 255 255 255
-0.7904973 -1.6663063 1.0939265 78 78 78
-0.88640505 -1.6895558 1.0969934 111 111 111
-0.061074257 -3.2707393 0.95976543 132 132 132
-0.91046035 -1.7833562 1.0611885 53 53 53
-1.8251466 -3.1765785 0.76003253 82 82 82
-1.6085403 -3.3184273 0.76916605 102 102 102
-1.7871016 -3.2252285 0.74945885 71 71 71
-1.7196892 -3.3278277 0.74704385 81 81 81
-1.6100416 -3.341531 0.71254241 80 80 80
-1.5414174 -3.3184283 0.75758052 178 178 178
-1.4793471 -3.3372841 0.68638355 96 96 96
-1.5705771 -3.3422074 0.72586119 156 156 156
-1.664885 -3.3632169 0.65221268 180 180 180
-1.581656 -3.3312573 0.75361234 56 56 56
-1.8129184 -3.2984746 0.75796556 73 73 73
-2.3104258 -2.9528964 1.3707504 60 60 60
-2.5978658 -2.9707477 1.3968298 147 147 147
-2.5368443 -2.9910765 1.3831466 94 94 94
-2.7395551 -3.0300577 0.79272997 66 66 66
-2.6621189 -2.8910446 1.1334997 91 91 91
-2.5416501 -2.9334953 1.0777668 52 52 52
-2.7495766 -2.9219863 0.78757888 52 52 52
-2.8337114 -3.0047355 0.7971831 52 52 52
-2.3522389 -2.9618599 0.76249111 54 54 54
-2.4169126 -2.8385742 0.85007232 56 56 56
0.87431335 -1.9842325 0.14358133 188 188 188
0.91603565 -1.9182917 0.13142115 255 255 255
0.98776168 -2.306896 0.11343003 255 255 255
0.94464433 -1.942345 0.14576066 255 255 255
1.1900729 -2.1794531 0.12075747 134 134 134
0.97236866 -2.0139041 0.1138655 166 166 166
0.74260914 -2.1257963 0.15377033 255 255 255
0.84843737 -2.2299278 0.1445027 255 255 255
0.92297685 -2.077167 0.11244697 88 88 88
0.99897331 -1.9841429 0.13457298 117 117 117
1.3425014 -2.0603237 0.08058966 188 188 188
0.82626712 -2.0195973 0.15354723 243 243 243
1.1413916 -1.8771344 0.088110454 255 255 255
1.1386153 -2.1291447 0.11588705 54 54 54
0.80822283 -2.1722264 0.07731659 255 255 255
-0.77670062 -1.2805942 1.0471131 64 64 64
-0.80219674 -1.2257445 1.0520577 76 76 76
-0.89483494 -1.2295493 1.0803443 110 110 110
-0.9974733 -1.2568069 1.0666733 208 208 208
-0.88713789 -1.2386242 1.0741402 174 174 174
-0.79212034 -1.2839075 1.0492802 155 155 155
-0.75242347 -1.2869927 1.0490203 143 143 143
-0.9778381 -1.2464933 1.0759113 167 167 167
-0.92580259 -1.2990879 1.0536058 180 180 180
-0.94277078 -1.2508459 1.0713501 180 180 180
-0.98351353 -1.2408041 1.0754428 238 238 238
-0.76945841 -1.3470203 1.0086708 205 205 205
-0.88171506 -1.3505127 1.0736288 209 209 209
-0.8495028 -1.2296515 1.077827 170 170 170
-0.84445232 -1.3439844 1.1302609 199 199 199
-1.3187463 -3.0796878 0.11176527 53 53 53
-1.357934 -3.2695928 0.10462452 87 87 87
-1.9636295 -3.2941937 0.31288749 81 81 81
-1.7150786 -3.1642022 0.50053358 198 198 198
-2.276418 -3.0907133 0.17338568 30 30 30
-2.6306963 -2.9777172 0.45048791 62 62 62
-2.7940569 -2.8792698 0.63760829 55 55 55
-2.5305846 -2.927212 0.50075603 54 54 54
-2.4011431 -2.9776471 0.55354363 47 47 47
-2.6054821 -2.9200623 0.2340526 47 47 47
0.51428568 -1.7489209 0.086912878 222 222 222
0.4625434 -1.6560895 0.16829789 222 222 222
0.49836659 -1.7510425 0.093599267 214 214 214
0.62270713 -1.7469293 0.086718388 207 207 207
0.52273089 -1.7012339 0.085541494 190 190 190
0.41892141 -1.6768229 0.12882829 169 169 169
0.42430249 -1.5934998 0.072455712 61 61 61
0.44108501 -1.6368473 0.033973582 93 93 93
0.62611187 -1.6157163 0.13663089 81 81 81
0.31952363 -1.6919193 0.14830261 186 186 186
0.71300757 -1.730772 0.076896377 217 217 217
0.42506191 -1.6272192 0.081447966 144 144 144
0.66691959 -1.593985 0.16398388 111 111 111
0.20434813 -1.6519291 0.15489525 219 219 219
0.34777462 -1.6351438 0.1561386 179 179 179
0.66665953 -1.4530686 0.13691115 101 101 101
0.42488801 -1.7784903 0.051971443 89 89 89
0.43737835 -1.4641143 0.074750014 195 195 195
0.29752383 -1.645999 0.087781198 211 211 211
0.28032455 -1.5416914 0.13440448 247 247 247
0.38631517 -1.6426287 0.052015848 151 151 151
0.75216234 -1.6425213 0.081642039 102 102 102
0.72478884 -1.5826885 0.12317056 101 101 101
0.64300275 -1.5902733 0.15383267 165 165 165
-0.96954918 -1.2795419 0.75246918 112 112 112
-0.96435297 -1.2807511 0.78176939 102 102 102
-0.93489909 -1.2290624 0.79904234 80 80 80
-0.84262437 -1.2844491 0.68394637 81 81 81
-0.92509508 -1.2382216 0.72765064 76 76 76
-0.92148888 -1.2424767 0.72247207 76 76 76
-0.96026266 -1.2386214 0.76275456 110 110 110
0.22615962 -3.2442291 1.4810593 228 228 228
0.311014 -3.2210424 1.5041965 255 255 255
0.19112571 -3.2150533 1.8869371 232 232 232
1.8750318 -3.1958511 1.347576 165 165 165
0.74130815 -3.219346 0.79212576 228 228 228
-2.6767671 -2.8810532 0.56786686 60 60 60
-2.324142 -3.0440085 0.42787123 98 98 98
-2.6194382 -2.9411345 0.26812154 46 46 46
0.68816859 -1.661204 0.092885263 81 81 81
-0.25574321 -3.206938 1.366433 189 189 189
-0.49819833 -3.2455828 1.6505677 126 126 126
2.4856691 -3.1968844 1.0822726 94 94 94
1.8950186 -3.2362196 0.95980996 154 154 154
-2.3765669 -2.6618087 0.19973618 18 18 18
0.20266879 -3.19713 1.5232178 255 255 255
0.28270298 -3.2562885 1.1636019 255 255 255
1.971211 -3.2342546 0.14795029 40 40 40
0.67434245 -3.2218463 1.2829744 200 200 200
0.81082171 -3.2371981 0.8547889 188 188 188
1.6529495 -3.2414093 0.36934221 164 164 164
0.16206366 -3.2409246 1.0597649 245 245 245
0.3895101 -3.2474885 0.86416638 224 224 224
-0.87400299 -1.7706319 1.0670329 85 85 85
0.35381755 -3.2663932 1.2712632 207 207 207
0.42559439 -3.2015345 0.75522161 238 238 238
-1.675557 -3.2335649 0.68192917 115 115 115
-1.8382638 -3.3714874 0.64429069 116 116 116
-1.8248136 -3.3269455 0.6869874 84 84 84
-1.6623158 -3.0272713 0.82163852 157 157 157
-1.4684188 -3.1396854 0.7755785 68 68 68
-1.5836854 -3.1959131 0.69973308 100 100 100
-2.4843538 -2.9740372 1.2578934 52 52 52
0.94487524 -1.991698 0.17181486 195 195 195
0.76759815 -2.0479953 0.18472934 146 146 146
0.87991637 -2.0561078 0.1594826 235 235 235
0.63861388 -2.0491097 0.19614309 255 255 255
0.92136294 -2.152503 0.14467412 255 255 255
1.0755341 -1.8820498 0.090242453 252 252 252
1.1296448 -1.9672071 0.086253531 255 255 255
-1.0013112 -1.270329 1.0509998 70 70 70
-0.91081959 -1.292695 1.0428088 133 133 133
-1.6878181 -3.3387184 0.48902529 64 64 64
-1.7603043 -3.3088436 0.51688361 50 50 50
-1.6195269 -3.317796 0.49574882 72 72 72
-1.7384551 -3.0820124 0.5588392 103 103 103
-1.2242347 -3.0432804 0.094904311 60 60 60
-1.2185221 -3.0316851 0.099438675 60 60 60
-1.3575515 -3.3618951 0.36822397 77 77 77
-2.7262595 -3.0187321 0.51237452 65 65 65
0.4882538 -1.6840566 0.20110291 221 221 221
0.37362719 -1.5594944 0.17800277 68 68 68
0.35709247 -1.6984075 0.086374708 128 128 128
0.52221012 -1.7901436 0.096356459 56 56 56
0.26226723 -1.6047517 0.12009478 223 223 223
0.38743842 -1.6393961 0.079971261 55 55 55
0.60724801 -1.5175223 0.18269402 111 111 111
-0.96532702 -1.2033533 0.86081636 104 104 104
1.8484869 -3.3276389 1.5476434 194 194 194
1.2791992 -3.3146598 1.9780014 251 251 251
1.7305509 -3.2185397 1.848887 182 182 182
0.82729113 -3.2313669 1.1124222 142 142 142
0.2182406 -3.2475286 1.2674977 206 206 206
-1.754797 -3.3302157 0.72956955 173 173 173
-1.7184478 -3.2032676 0.75605881 68 68 68
-1.5185932 -3.3376486 0.71328509 79 79 79
-1.8236352 -3.4003274 0.88583666 114 114 114
-1.7006431 -3.3188846 0.73658013 157 157 157
-1.4997326 -3.3305707 0.7194761 164 164 164
-1.68502 -3.3483822 0.67685616 111 111 111
-1.8289735 -3.3272946 0.57667834 98 98 98
-1.8266065 -3.36518 0.67511219 84 84 84
-2.4683282 -2.956332 0.98994052 52 52 52
-2.3429997 -2.9391706 1.0276182 59 59 59
-2.5423334 -2.9474022 0.87394941 46 46 46
0.74019814 -2.1319766 0.12774849 255 255 255
0.93122613 -2.0938196 0.12779874 235 235 235
0.90302634 -2.1900101 0.11394776 240 240 240
0.99850547 -2.2044773 0.14324164 255 255 255
-0.93221992 -1.2529407 1.0638822 180 180 180
-0.99586892 -1.2311867 1.066732 190 190 190
-2.2890761 -3.1459196 0.20374954 44 44 44
-2.61971 -2.9467165 0.3137216 47 47 47
-2.6558688 -2.9583707 0.5995549 53 53 53
-2.776886 -2.9836926 0.40587044 40 40 40
-2.6795669 -2.8854115 0.56414658 58 58 58
0.4198648 -1.5898145 0.14131886 68 68 68
0.21806404 -1.7012752 0.1310513 235 235 235
0.79833621 -1.4400578 0.068645664 100 100 100
1.8145046 -3.1978846 1.656939 173 173 173
1.745506 -3.245388 1.0157394 224 224 224
0.27788866 -3.2477372 1.1638772 255 255 255
0.24938752 -3.2214229 0.79942471 255 255 255
-1.955109 -4.3223262 0.46290213 68 68 68
1.7727486 -3.258729 1.98209 189 189 189
1.4493189 -3.2582259 2.083313 223 223 223
0.39368153 -3.2444043 1.7558519 243 243 243
2.6180396 -3.2153718 0.91865581 78 78 78
1.24538 -3.2484558 0.75714093 175 175 175
1.0826657 -3.2589366 0.75571233 186 186 186
1.0928119 -3.2584453 0.91095573 181 181 181
-0.24142462 -3.2466693 1.261222 186 186 186
0.76542211 -3.2567244 0.59491372 230 230 230
-1.3547797 -3.3795385 0.80081201 99 99 99
-1.6568617 -3.3881795 0.88983351 111 111 111
-1.6996412 -3.1377943 0.65228945 106 106 106
1.2661335 -3.2776785 0.24061656 183 183 183
-0.80022186 -1.2761421 1.0648232 193 193 193
-1.6399617 -3.0970204 0.56606472 63 63 63
-1.0252051 -3.1094031 0.06837333 29 29 29
-2.4981391 -3.0189793 0.68251103 33 33 33
-2.6350343 -3.0073225 0.58309138 31 31 31
0.40935174 -1.6002598 0.2389912 194 194 194
0.29597619 -1.6936669 0.081266828 248 248 248
2.2230163 -3.2028682 0.69863856 80 80 80
1.1809469 -3.2388015 1.0974755 192 192 192
0.62709492 -3.2306051 0.86490405 211 211 211
0.47626328 -3.2731235 0.75245827 227 227 227
-1.874319 -3.3329654 0.57764184 88 88 88
-1.4983847 -3.3648634 0.70982051 173 173 173
-1.3141172 -3.3226488 0.73590451 67 67 67
-2.4855585 -2.9670303 1.1339813 60 60 60
-2.3654134 -3.0010381 1.0088112 54 54 54
-2.4151289 -2.782712 0.85382438 65 65 65
-2.3306484 -3.0301473 1.3314253 140 140 140
1.5819514 -2.6945262 0.11715252 145 145 145
1.736444 -2.3245764 0.10100032 40 40 40
-1.7782509 -3.293787 0.52170187 56 56 56
-2.6441803 -2.9638526 0.64586526 65 65 65
-2.6702278 -2.9872224 0.58146715 52 52 52
-2.6155119 -2.8999951 0.69071531 34 34 34
0.22813413 -3.2548962 0.90812457 255 255 255
-1.5319954 -3.3328538 0.5811888 96 96 96
-2.4912364 -2.9672418 1.0604483 64 64 64
1.3009571 -1.9455075 0.080843695 211 211 211
1.8394039 -3.3067572 1.8425689 187 187 187
2.7071459 -3.2070332 1.0599139 77 77 77
1.1171511 -3.24002 0.63922787 185 185 185
0.18090378 -3.2351575 1.0955878 217 217 217
0.73570395 -3.2243342 1.0085006 254 254 254
0.28582907 -3.2645802 1.5554162 255 255 255
-1.121973 -1.6320865 1.656886 169 169 169
-0.9453038 -3.3067167 1.4624662 147 147 147
1.7679813 -3.2549672 1.1079688 211 211 211
-1.6287962 -3.3932931 0.71185213 88 88 88
-0.92317688 -3.2920995 1.2135885 162 162 162
-1.936589 -3.3581891 0.77833915 192 192 192
1.9409664 -2.26999 0.081298597 164 164 164
1.6998808 -2.7132814 0.079476126 135 135 135
-1.7576275 -3.3593729 0.47159159 93 93 93
-1.5516753 -3.3508315 0.50273341 138 138 138
0.12390212 -3.2755342 1.5451533 202 202 202
1.2814122 -3.2561436 1.2666297 176 176 176
1.0940899 -3.2589033 0.97595745 180 180 180
-2.7068877 -2.9655755 0.7807861 58 58 58
-2.575773 -3.0198729 1.153167 44 44 44
1.7754997 -2.3751595 0.078722246 128 128 128
1.8873638 -2.5256317 0.028499492 42 42 42
-1.6641649 -3.3206868 0.5116092 114 114 114
1.2490815 -3.2616246 0.24725503 182 182 182
1.7321135 -2.7298751 0.067784734 135 135 135
-1.6613083 -3.3374703 0.48615259 62 62 62
-2.6487241 -3.0019145 0.28804994 53 53 53
-1.8616556 -3.2961001 0.60078675 79 79 79
-1.5792747 -3.9039125 0.7617085 111 111 111
-1.0073555 -2.756345 1.4896473 171 171 171
-0.90150738 -3.3002644 1.5110972 123 123 123
0.7817266 -3.2712824 0.8921631 255 255 255
-1.4935484 -3.398946 0.69144434 168 168 168
-1.8257523 -3.426167 0.7170518 65 65 65
-1.0357568 -3.3394125 0.82981187 163 163 163
-0.94241577 -3.2843609 1.3790675 164 164 164
-2.4796157 -2.9812818 0.97999752 60 60 60
-2.4738913 -3.0098689 1.3780063 118 118 118
1.7044919 -2.7428746 0.079753168 51 51 51
-1.793471 -3.3697436 0.5671286 68 68 68
-1.5718646 -3.3903222 0.56370389 92 92 92
-1.7737392 -3.4264712 0.64807427 96 96 96
-1.7141919 -3.4114881 0.56507891 170 170 170
-2.5679607 -3.0095727 0.70406741 56 56 56
-2.5081046 -3.0459538 0.65534776 68 68 68
-1.0645105 -1.3359981 1.5537599 82 82 82
-0.94020259 -3.2874503 1.4845469 93 93 93
-0.94149786 -3.2802827 1.4425098 89 89 89
-0.91762584 -3.3131368 1.4513603 119 119 119
2.6980946 -3.239538 0.57509094 78 78 78
-0.4077017 -3.2466621 1.2594132 197 197 197
-0.43830657 -3.2335923 1.2292246 209 209 209
-0.47310588 -3.2530739 1.2367544 202 202 202
-1.5676879 -3.3778338 0.71331781 158 158 158
1.6863427 -2.7355523 0.091200538 51 51 51
1.7020994 -2.5684409 0.096919246 124 124 124
1.7232139 -2.4296861 0.086049683 46 46 46
-1.665036 -3.3317339 0.51662588 128 128 128
-2.6472311 -2.9979255 0.39188546 56 56 56
-1.8609718 -3.3040633 0.6043691 86 86 86
-2.2588456 -3.4304891 1.0572436 129 129 129
1.9739337 -3.2782509 0.10801858 198 198 198
1.7361449 -2.4808424 0.095692582 140 140 140
1.666838 -2.6958342 0.098356076 115 115 115
-1.362451 -3.2512808 0.084041484 197 197 197
-1.8356975 -3.36324 0.57491875 81 81 81
-1.1012141 -1.3839672 1.6193746 120 120 120
-0.63602692 -1.7401184 1.6314141 87 87 87
-1.124992 -1.696157 1.5349904 114 114 114
-0.84479064 -3.2846968 1.69318 206 206 206
-0.94851583 -3.2952645 1.4654483 145 145 145
-0.94043249 -3.2513442 1.4117631 174 174 174
-0.88312316 -3.373204 1.7696736 168 168 168
-0.92811978 -3.2799969 1.5462472 160 160 160
-0.96535075 -3.2844212 1.8396984 139 139 139
1.2075014 -3.2150223 0.92043954 199 199 199
2.5434401 -3.2074425 0.74612927 75 75 75
0.84238327 -3.2426531 1.1068583 138 138 138
-0.71808285 -3.1956875 1.0826875 47 47 47
-0.78721511 -3.2513185 1.1656271 179 179 179
-0.82389927 -3.311348 1.1400259 187 187 187
-0.78693068 -3.2535667 1.2405216 212 212 212
-0.73784488 -3.2666683 1.2428732 166 166 166
-0.44593856 -3.2430189 1.191276 157 157 157
-0.87534177 -3.2765331 1.1679339 171 171 171
-0.48043597 -3.2466884 1.3079596 192 192 192
0.19838256 -3.2556536 0.99593621 191 191 191
-1.6139894 -3.3044233 0.77064472 93 93 93
-1.5602394 -3.3114328 0.77226365 75 75 75
-2.4683204 -2.9165077 0.96388626 63 63 63
-2.6156096 -3.1190467 1.0428194 44 44 44
-2.4649303 -2.9332659 1.3916607 69 69 69
-0.86023617 -1.2855179 1.0485759 177 177 177
-0.84052879 -1.5769472 1.0705218 201 201 201
-0.87749803 -1.3304908 1.0295204 207 207 207
-1.1248329 -1.3821889 1.1808375 224 224 224
-0.90769005 -1.7559628 1.0630929 79 79 79
-0.51452243 -2.1454568 0.75201374 164 164 164
-0.99867386 -1.7619423 1.0660732 185 185 185
-0.93266976 -1.8330039 1.0694047 202 202 202
-0.99372113 -1.7583793 1.0691854 210 210 210
-0.95046854 -1.7748212 1.0704297 209 209 209
-0.93651915 -1.7269299 1.0677544 248 248 248
-1.1125274 -1.3918414 1.1167642 67 67 67
-1.019268 -1.702359 1.1033586 228 228 228
-1.0573355 -1.4312466 1.1493515 169 169 169
-1.7607108 -3.2734895 0.4998183 106 106 106
-1.7593939 -3.2193673 0.70024312 124 124 124
-1.7780356 -3.2844779 0.49281323 97 97 97
-1.612578 -3.3801947 0.55151808 102 102 102
-1.7157317 -3.2312427 0.61175656 85 85 85
-1.6607708 -3.2691483 0.53583425 113 113 113
-2.5524099 -2.9671032 0.63580316 53 53 53
-1.0137458 -2.4617 0.20132351 113 113 113
0.43044177 -3.3022339 1.5241002 204 204 204
-0.85886919 -3.3248284 1.5000932 167 167 167
-0.84116977 -3.3044925 1.5668467 121 121 121
-0.91581565 -3.3589888 1.5572401 117 117 117
-0.93203175 -3.303659 1.7412155 121 121 121
1.5355495 -3.2927701 1.2424793 133 133 133
0.27594963 -3.2557333 0.89443201 255 255 255
-1.460659 -3.4202428 0.68553668 125 125 125
-0.83712703 -3.2735529 1.1742911 204 204 204
-0.81000346 -3.3361242 1.2493409 176 176 176
-0.87806308 -3.2661469 1.1604917 171 171 171
-1.7333455 -3.3852973 0.56448734 96 96 96
0.23222193 -3.2572019 1.7627728 248 248 248
-0.94718897 -3.2735252 1.3817172 164 164 164
2.2887189 -3.2099812 1.0049504 76 76 76
1.121327 -3.28141 0.40674001 148 148 148
0.31335306 -3.2275257 0.67580336 223 223 223
1.6737831 -2.6063747 0.091107495 138 138 138
-1.0386519 -3.0784812 0.099081166 75 75 75
-1.7860025 -3.2442288 0.60514897 112 112 112
-0.48635936 -3.2305355 1.6934904 222 222 222
0.83280587 -3.2436948 1.0833188 225 225 225
2.0025947 -3.4142902 1.8753449 172 172 172
-0.44963518 -3.3334105 1.6519785 132 132 132
-0.94279629 -3.2775397 1.7693183 203 203 203
-0.94472224 -3.2732396 1.7935195 240 240 240
-0.91540271 -3.2594326 1.4455408 219 219 219
-0.87594384 -3.2617252 1.5755924 169 169 169
-0.84562176 -3.312001 1.725276 142 142 142
-0.82627362 -3.2662752 1.6235423 130 130 130
-0.92406869 -3.3006124 1.513576 165 165 165
-0.87915164 -3.2697015 1.5417775 138 138 138
-0.88114536 -3.3120358 1.5252918 201 201 201
2.321564 -3.2011969 0.74690479 72 72 72
-0.56653696 -3.1924722 1.2386181 167 167 167
-0.41378951 -3.2367272 1.2591084 185 185 185
0.40995392 -3.2502685 1.0138419 138 138 138
-1.6751577 -3.1125467 0.83271194 66 66 66
-1.6642393 -3.3419967 0.71060324 77 77 77
-0.97819835 -3.016125 1.0973214 118 118 118
1.3879857 -2.0696976 0.033837147 255 255 255
-0.98521054 -1.7316455 1.0629438 225 225 225
-0.90166461 -1.7201931 1.0544393 142 142 142
-1.1105634 -1.4668109 1.1470976 240 240 240
-0.97788179 -1.8123659 1.0550014 149 149 149
-0.96713597 -1.8089371 1.0790987 179 179 179
-0.93180776 -1.7889644 1.0909038 203 203 203
-1.6919959 -3.321981 0.59691423 75 75 75
-1.8344294 -3.3499527 0.58292711 93 93 93
-1.7811496 -3.3110642 0.57820851 83 83 83
-1.6786598 -3.2444608 0.63331521 174 174 174
-1.3037977 -3.0662098 0.099515624 135 135 135
-1.641337 -3.3512735 0.49925825 146 146 146
-1.7257357 -3.4426849 0.5309425 111 111 111
-2.4405758 -2.833488 0.771896 65 65 65
-0.70630842 -3.2950506 1.7167106 210 210 210
-0.2824266 -3.3763237 1.4484938 181 181 181
-0.9400512 -3.2837307 1.7704901 203 203 203
-0.92603695 -3.2616589 1.3994827 111 111 111
-0.95388269 -3.2883215 1.6599784 177 177 177
2.4659648 -3.2565744 0.53482831 85 85 85
2.3038497 -3.1915693 0.75516295 72 72 72
-0.79626101 -3.2580144 1.2838756 198 198 198
-0.83674216 -3.2474194 1.2842777 102 102 102
-1.7483145 -3.2957258 0.91412443 115 115 115
-0.9327594 -1.2968341 1.0500821 224 224 224
-1.7463154 -3.2543564 0.69748509 84 84 84
-1.3806183 -3.2734168 0.076157339 82 82 82
-2.607393 -2.9028423 0.57842386 74 74 74
-0.87341923 -3.3175843 1.6552995 193 193 193
2.2672946 -3.2290342 0.68191791 73 73 73
0.20029648 -3.2540109 1.0796794 223 223 223
-1.4748633 -3.4310353 0.68148834 58 58 58
-0.83451074 -3.277205 1.1373198 190 190 190
-0.77698123 -3.294204 1.2763852 198 198 198
-0.98350209 -3.2546949 1.0869595 146 146 146
-0.93855679 -3.2938406 1.2964529 172 172 172
1.7220891 -2.6254375 0.065497644 164 164 164
1.6894497 -2.6402869 0.064406522 50 50 50
0.074617475 -2.4606493 0.68407708 156 156 156
-1.3011051 -3.0673606 0.097692437 135 135 135
0.2520557 -3.2513089 1.3996203 242 242 242
-0.79732192 -3.2814608 1.8323146 167 167 167
-0.91660774 -3.255172 1.4201258 231 231 231
-0.77762574 -3.2878828 1.7263894 194 194 194
-0.89497405 -3.2682083 1.6889706 182 182 182
-0.79216409 -3.286422 1.5033739 134 134 134
-0.82606685 -3.2456982 1.3729931 165 165 165
1.2414161 -3.2467489 0.75737125 168 168 168
-0.29308233 -3.2254446 0.92310923 241 241 241
0.14909755 -3.236594 1.0780976 250 250 250
0.18539454 -3.2253661 0.85820508 210 210 210
-0.90383869 -3.2579684 1.1950576 197 197 197
-0.93107247 -3.1265366 1.126687 149 149 149
-0.58592975 -1.8249326 1.724012 124 124 124
-0.73411936 -3.2442474 1.5916685 239 239 239
-0.36816567 -3.2333078 1.7970934 212 212 212
0.2294195 -3.2268777 1.4034908 242 242 242
-0.88240582 -3.2759087 1.5854303 105 105 105
-0.84528559 -3.2895432 1.7420906 182 182 182
-0.92893189 -3.2661054 1.7644937 118 118 118
2.2027743 -3.2242506 0.49781382 82 82 82
0.25249591 -3.2276804 0.66265148 240 240 240
-0.90284616 -3.2592587 1.1949273 197 197 197
-0.87499237 -1.767405 1.0546643 195 195 195
-1.383077 -3.2660019 0.08084435 78 78 78
-0.79702902 -3.2550514 1.4526078 178 178 178
0.57236385 -3.2401145 0.75352252 202 202 202
-0.83728588 -3.2655935 1.2597259 174 174 174
-0.40749839 -3.2284591 1.3189461 105 105 105
-0.78109956 -3.2357433 1.1246021 96 96 96
-0.94187033 -3.2973077 1.2388079 139 139 139
-0.17597783 -3.2407 1.2094382 218 218 218
-0.76936126 -3.2869148 1.1551563 186 186 186
-0.47882131 -3.2411442 1.4698024 224 224 224
-0.48773628 -3.2310948 1.5476729 225 225 225
-0.26176459 -3.2173193 1.810398 255 255 255
-0.41844121 -3.2576375 1.4000115 211 211 211
-0.81617713 -3.2084978 1.8140066 223 223 223
-0.90570617 -3.275557 1.7963513 214 214 214
-0.95302922 -3.2549763 1.4848539 90 90 90
1.2364861 -3.2363408 0.91447264 200 200 200
-0.16903976 -3.2484975 1.1000288 189 189 189
-1.6600699 -3.3503857 0.98383498 100 100 100
-1.4813588 -3.3029876 0.75589919 96 96 96
-0.82592934 -3.2537208 1.2216661 194 194 194
-0.82812226 -3.2462871 1.2530391 194 194 194
-0.8487761 -3.2606957 1.2030419 167 167 167
-0.92169428 -3.2520018 1.2028234 179 179 179
1.4531993 -2.3060865 0.074911661 245 245 245
2.025547 -2.214262 0.037291534 52 52 52
1.2276999 -3.2449553 0.36688 184 184 184
1.2197382 -3.2440195 0.30635291 179 179 179
1.8559973 -2.2436249 0.098426946 56 56 56
-1.5668343 -3.3047869 0.68994117 91 91 91
-1.6909394 -3.3185081 0.66349441 99 99 99
-1.5975591 -3.3477402 0.65693885 123 123 123
-1.6434162 -3.3093381 0.70033693 139 139 139
-0.4541899 -3.1751318 1.4090086 143 143 143
-0.49920726 -3.2278588 1.629779 201 201 201
2.4541178 -3.2154779 0.87691605 69 69 69
0.9857673 -3.2315054 0.74438179 159 159 159
-0.13284962 -3.2124045 0.8741889 202 202 202
-1.6816936 -3.3157382 0.7326622 155 155 155
1.7028985 -2.2876914 0.099631734 193 193 193
-0.48831618 -3.2351098 1.6680205 224 224 224
-1.0103662 -3.3069921 1.4016464 74 74 74
0.75227261 -3.2455466 1.1109163 221 221 221
-0.16459794 -3.253412 1.098959 189 189 189
-0.62747186 -3.2339671 1.4727856 159 159 159
-0.2453312 -3.2343826 1.5498666 246 246 246
-0.30022088 -3.2350307 1.88015 241 241 241
-0.32276374 -3.2122769 1.8183348 231 231 231
-0.19899206 -3.236351 1.8633459 204 204 204
-0.21535273 -3.2145162 1.8200502 182 182 182
-0.22600816 -3.2522764 1.7621819 192 192 192
-0.31019601 -3.2322137 1.486148 178 178 178
-1.1734344 -2.5239823 1.5650171 210 210 210
-0.77099162 -3.2837932 1.892123 243 243 243
-0.90212452 -3.2530937 1.8777909 210 210 210
2.6566424 -3.2324693 0.91529262 74 74 74
0.15993409 -3.2169962 1.0934993 224 224 224
-0.5058164 -3.2090032 1.4075978 218 218 218
-0.25494429 -3.2329416 1.2598659 171 171 171
-0.066521004 -3.2337387 1.2550203 164 164 164
-0.16794689 -3.2498653 1.3350852 166 166 166
-0.14755851 -3.2070198 1.2151607 157 157 157
0.77752572 -3.2283814 0.91297275 226 226 226
-0.50514144 -3.2243624 1.3396097 201 201 201
-0.42628658 -3.2231145 1.3610944 201 201 201
-0.93718278 -3.2205355 1.3036221 191 191 191
-0.96575421 -3.2345748 1.3579364 165 165 165
-0.77673674 -3.2047739 1.1535623 104 104 104
2.098727 -3.1503499 0.14314115 234 234 234
-0.13091625 -2.1704443 0.77581 200 200 200
1.636117 -2.7420201 0.09250576 118 118 118
1.6765152 -2.346709 0.12287182 121 121 121
1.8650641 -2.5921879 0.010306961 42 42 42
1.978879 -2.7331731 -0.017708831 49 49 49
