ply
format ascii 1.0
comment PCL generated
element vertex 1116
property float x
property float y
property float z
property uchar red
property uchar green
property uchar blue
element camera 0
property float view_px
property float view_py
property float view_pz
property float x_axisx
property float x_axisy
property float x_axisz
property float y_axisx
property float y_axisy
property float y_axisz
property float z_axisx
property float z_axisy
property float z_axisz
property float focal
property float scalex
property float scaley
property float centerx
property float centery
property int viewportx
property int viewporty
property float k1
property float k2
end_header
-0.21236646 3.2716241 0.53051007 179 179 179
-1.12484 4.4756474 0.013689863 10 10 10
0.0086069638 2.9728577 0.11360823 145 145 145
-0.081500567 3.0791333 0.26726794 121 121 121
-1.5015844 5.0737643 0.9632737 166 166 166
-0.11640019 3.5581865 1.0508324 147 147 147
-0.11184731 4.8165402 0.073220834 88 88 88
-0.071978815 4.7727423 0.40043294 176 176 176
0.75455183 4.4700899 0.037993416 94 94 94
0.4724282 4.7727556 0.29918641 109 109 109
0.33612031 4.6079731 0.42932546 70 70 70
-0.090255298 3.2447314 0.53799021 33 33 33
-0.11901112 3.3939698 0.77252001 155 155 155
-0.15381126 3.2302377 0.5351299 183 183 183
-0.82414407 4.7810874 -0.16098727 90 90 90
-0.30553645 3.1641183 0.25882947 214 214 214
3.5517733 3.6089292 0.909006 98 98 98
3.651207 3.5527961 0.88981825 152 152 152
-0.90705949 5.1589546 0.46440333 179 179 179
0.34519562 4.3652096 0.14315943 75 75 75
0.56505471 3.1521587 0.36990029 89 89 89
0.34585705 4.7712359 0.34728223 224 224 224
-0.16076049 3.3612068 0.77114344 194 194 194
-1.2085391 4.6792989 0.94657803 120 120 120
-1.402366 4.7186117 0.97408569 231 231 231
-1.2681274 4.5993838 0.9170208 118 118 118
-0.061615553 3.5491583 1.0373721 62 62 62
-0.089062758 3.5509343 0.99714541 163 163 163
0.34287181 4.5723882 0.81595832 83 83 83
-0.986812 5.0886965 0.24413697 41 41 41
-1.0782151 4.7838874 0.45431805 165 165 165
-1.0413352 4.9524336 0.4200241 146 146 146
-0.94017619 4.692493 0.12832938 53 53 53
-0.94045931 4.3569322 0.41309446 201 201 201
0.53171211 4.5246053 0.021810399 120 120 120
0.61377734 4.7558541 0.11752979 39 39 39
0.33349782 4.3885288 0.22129636 80 80 80
-0.26300424 3.2537634 0.47558111 128 128 128
0.29148197 3.3320653 0.49629015 145 145 145
-1.1788385 4.6891603 -0.074270502 23 23 23
-1.273021 4.6669979 -0.021543158 42 42 42
-1.6087564 3.9711821 0.2877422 115 115 115
-1.6077607 4.4821568 0.044759259 81 81 81
-0.14402847 3.0894523 0.31368136 58 58 58
-0.1169056 3.1165731 0.29509777 156 156 156
-0.063871324 3.0685916 0.29027349 90 90 90
-1.588762 4.7713537 0.97349602 130 130 130
-1.6522224 4.7974877 0.97057283 219 219 219
-1.3748094 4.9093103 0.93989044 101 101 101
0.088092402 4.9614139 0.080387458 33 33 33
-0.4114241 4.8208323 0.040885314 61 61 61
-0.091136768 4.6929064 0.07172893 81 81 81
-1.1429464 4.6965232 0.17778175 23 23 23
0.6476506 4.8049493 0.064262614 67 67 67
0.7891714 4.4962134 0.028594838 96 96 96
-0.24175052 3.2705719 0.48845196 135 135 135
0.29330161 3.4007473 0.76171011 108 108 108
-0.34577581 2.9914856 0.00084649213 73 73 73
0.59063292 4.3966255 0.92944598 247 247 247
0.41402388 4.424551 0.06926702 120 120 120
0.65463609 4.8581305 0.085724458 13 13 13
0.35430452 4.7398615 0.27887809 125 125 125
0.36282128 4.7430634 0.32593095 116 116 116
0.50192255 4.772264 0.54610109 27 27 27
-1.5325271 4.8549876 0.96818674 207 207 207
-1.0270143 6.2154303 0.90902334 115 115 115
0.03587231 4.9316187 0.51199245 200 200 200
0.70101684 4.9317212 0.89623141 92 92 92
-1.0068358 4.8735185 0.24778317 173 173 173
-1.1518489 4.7309923 0.44919568 142 142 142
-1.092783 4.9804373 0.36912143 90 90 90
-1.0088662 4.9255562 0.23032354 131 131 131
-1.1009572 4.8388543 0.28103513 84 84 84
-0.44901454 5.0764647 -0.11979903 106 106 106
-0.15065369 4.8455248 0.060173377 71 71 71
-0.059186507 5.1916437 -0.1081195 58 58 58
-0.74310774 4.8104029 0.27228481 230 230 230
-0.10699506 3.3711834 0.42916834 231 231 231
3.4036419 3.8167281 -0.0036445986 68 68 68
2.2833285 3.3107414 -0.012814296 32 32 32
-1.2738453 4.5570345 0.020871388 36 36 36
-1.2785088 4.4868412 0.031381473 127 127 127
-0.23460805 3.2095699 0.3315658 79 79 79
0.28056613 3.1111357 0.25839287 203 203 203
-0.067729093 3.1367478 0.21354537 68 68 68
0.29156801 3.1313848 0.25271463 238 238 238
-0.060016267 3.1372526 0.23259746 153 153 153
0.24471875 3.14165 0.2563349 154 154 154
-0.0023003384 3.1933978 0.18738012 181 181 181
-1.4786106 5.1560025 0.97314394 236 236 236
-1.4801686 4.6939616 0.96395183 219 219 219
-1.3315697 4.4728441 0.92900956 107 107 107
-1.1022952 4.848835 0.3756575 124 124 124
-1.0549403 4.9079971 0.23653387 115 115 115
-0.41739735 4.8892426 -0.016996635 76 76 76
-0.25559184 4.9542899 -0.014158977 73 73 73
-0.60378772 4.9089417 -0.01049055 72 72 72
-0.30569473 4.9934673 -0.034766689 51 51 51
0.091819599 5.0137987 0.010323154 39 39 39
-0.79096085 4.802671 0.054913148 68 68 68
0.058576655 5.0469351 -0.070761815 43 43 43
-0.015230852 4.8639627 -0.0072145592 31 31 31
0.011975364 4.8577027 0.020284878 76 76 76
-0.66884673 4.8170667 0.037443623 27 27 27
-0.087324053 3.2759831 0.52689964 118 118 118
2.0510254 3.350903 0.027930604 98 98 98
-1.187562 4.7315745 -0.051636949 33 33 33
-1.2272162 4.7575946 -0.1114309 80 80 80
-0.30332837 3.1097381 0.30006927 158 158 158
0.25466678 2.9955797 0.069731101 131 131 131
-0.79304004 4.6616311 0.30799872 227 227 227
-1.3014808 4.5377402 0.038154826 21 21 21
-1.192745 4.6332788 0.0020606387 9 9 9
-0.062787287 3.4551129 0.97221076 135 135 135
0.21084771 5.0735497 -0.12067939 34 34 34
-0.47061536 5.1678882 -0.11364819 39 39 39
0.13823651 3.1265774 0.22527085 236 236 236
0.31893802 3.1097298 0.34199244 179 179 179
-0.071955912 3.1093473 0.31685543 144 144 144
-1.2129035 4.594522 0.90447617 129 129 129
-0.9990235 4.8719516 0.43397385 212 212 212
-1.0280712 4.8518267 0.27338952 124 124 124
-0.58252776 4.810008 0.00049816258 102 102 102
-0.79520291 4.8014898 0.051333651 67 67 67
-0.085344613 4.8532286 0.018577682 46 46 46
-0.70868891 4.6645775 0.024349557 27 27 27
0.49707347 4.7484789 0.33164573 86 86 86
-1.2842923 4.4863286 0.032086715 81 81 81
-1.2256702 4.5113072 0.064924702 21 21 21
-0.06887681 3.1625943 0.25953406 66 66 66
-0.0088621927 3.105556 0.28092545 180 180 180
-0.067944445 3.1549754 0.33409208 173 173 173
-1.2125002 4.7269669 -0.066297784 150 150 150
-1.2492397 4.5456882 0.0040168632 112 112 112
0.61449701 4.7570066 0.94928145 251 251 251
-0.14455588 3.0791938 0.31612629 31 31 31
-0.30556875 4.6961827 0.068126068 81 81 81
-0.16148189 4.6811724 0.14281379 32 32 32
0.062211078 4.7643561 0.067131624 47 47 47
-0.1514737 4.5113788 0.15423845 63 63 63
0.32105184 4.7482109 0.35803556 224 224 224
0.42313114 4.6824646 0.29969507 71 71 71
-0.14855693 3.2217011 0.5354051 185 185 185
-1.1052121 4.8150902 0.35522801 113 113 113
0.53518713 4.8178921 0.25979012 87 87 87
3.2905998 3.7144809 0.89143443 110 110 110
-1.5289612 4.8331156 0.98862016 207 207 207
0.57469481 4.5884991 0.92651093 225 225 225
0.32938477 4.6782637 0.90402621 66 66 66
0.39859635 4.6668181 0.4342702 72 72 72
-1.2927877 4.4776001 0.10378216 107 107 107
0.46472901 4.6351643 0.94088662 255 255 255
0.40797177 4.6436601 0.88101035 76 76 76
0.66354233 4.6473866 0.90316617 94 94 94
0.40805873 4.5954299 0.90153176 83 83 83
0.43052191 4.7906599 1.0450404 235 235 235
0.47812068 4.9017639 0.89986604 185 185 185
-1.0304102 4.8180594 0.42414427 224 224 224
-1.1498575 4.8430738 0.39080125 173 173 173
0.31316507 4.7137995 0.35276669 71 71 71
0.3606683 4.7320461 0.3979525 136 136 136
0.36128342 4.806356 0.42517895 168 168 168
-0.46390015 4.8645244 0.038086519 61 61 61
0.27566859 4.6910672 0.41061538 155 155 155
0.41390026 4.5435433 0.096648023 44 44 44
0.42523625 4.7808127 0.83651894 51 51 51
0.27827892 4.7445865 0.40848488 128 128 128
0.41066805 4.7740169 1.020834 226 226 226
0.39465603 4.5948682 0.96390027 183 183 183
0.32783332 4.3611689 0.10624824 129 129 129
0.5453651 4.7669883 0.12019561 14 14 14
0.44538841 4.775537 0.42612606 124 124 124
0.28245944 4.7336793 0.31750339 151 151 151
-1.252925 4.4731421 0.058284983 119 119 119
0.6044991 4.9525461 0.99651426 192 192 192
1.0674442 4.7966709 0.93291533 255 255 255
-1.117734 4.5743437 0.45337039 178 178 178
-0.55070943 4.6647639 0.080841646 66 66 66
0.31192788 4.3491788 0.11412655 129 129 129
0.32687327 4.3609724 0.094368502 104 104 104
0.39441946 4.6694813 0.371773 58 58 58
-1.5099517 4.9931817 1.1651567 144 144 144
-1.046785 4.7480493 0.41131604 186 186 186
0.64131725 4.7580113 0.07860516 59 59 59
-1.4963346 4.6078019 0.95653129 236 236 236
-0.75115114 4.7180905 0.2959373 235 235 235
-0.26298967 4.6455317 0.084234163 32 32 32
-1.228964 4.6191874 0.87645316 92 92 92
0.86236972 5.1235738 1.1276299 102 102 102
0.3367275 4.5708647 0.81565815 87 87 87
-0.68997341 4.6190014 0.085112855 83 83 83
1.1236997 5.3044844 1.1395785 142 142 142
0.44066387 4.6995006 0.45408875 96 96 96
-0.74764013 4.5890365 0.071230277 75 75 75
0.45213172 4.7717934 1.0638902 96 96 96
-0.20619169 4.7012939 0.1275547 80 80 80
-1.5578228 4.6860137 1.30577 120 120 120
-1.3415221 4.604836 0.94131494 91 91 91
-1.2542201 4.5657744 0.89604974 113 113 113
-0.57118905 4.6417823 0.08941929 101 101 101
0.49486381 4.7335067 0.4604494 60 60 60
-1.5546869 4.691534 1.2102641 150 150 150
-1.5507005 4.7909994 1.3675247 170 170 170
-0.19909161 4.3869033 2.4878368 68 68 68
-0.22318447 4.3849788 2.5179138 81 81 81
-0.17779823 4.2530932 2.1472051 94 94 94
-0.22750476 4.1791534 2.2183664 137 137 137
-0.1398242 4.3462286 2.4584639 23 23 23
-0.17053097 4.3847489 2.4338975 22 22 22
-0.16609767 4.3597922 2.4871194 174 174 174
0.14504693 4.316256 2.4366798 57 57 57
-0.10480746 4.3863382 2.4115562 139 139 139
0.032273956 3.9183488 1.7488043 32 32 32
0.92390239 4.6329169 0.94794846 204 204 204
-0.16065496 4.3072014 2.3956676 165 165 165
-0.14468893 3.9261312 1.7147911 86 86 86
-0.12150945 4.5277638 2.5816395 80 80 80
-0.14043087 4.5378075 2.5965254 140 140 140
-0.11810562 4.5455608 2.5899532 146 146 146
-0.13001598 4.5141034 2.5384891 135 135 135
-0.18618168 4.427969 2.5002437 63 63 63
-0.12193247 4.4224672 2.425283 22 22 22
-0.16363108 4.4431038 2.5167191 131 131 131
-0.021792483 4.2202539 2.1975667 163 163 163
-0.52527893 3.9550915 2.1966419 175 175 175
-0.18247844 4.3425179 2.442282 41 41 41
-0.16302197 4.1819448 2.2106364 27 27 27
-0.1722188 4.1986818 2.2231162 120 120 120
0.012200474 3.9096336 1.7543818 28 28 28
-1.761011 5.0653639 2.7444804 116 116 116
0.40815803 4.3333206 2.1735218 157 157 157
0.89550811 4.836669 1.8729112 189 189 189
0.022200618 3.9376924 1.6678262 58 58 58
0.047857165 3.9312844 1.701537 130 130 130
-0.18948579 4.4617643 2.5589499 69 69 69
-0.16256075 4.3276653 2.4451122 20 20 20
-1.6788473 5.0566421 2.2364748 144 144 144
-0.15852273 4.1879854 2.1903789 148 148 148
1.2504511 5.4259205 2.5962551 21 21 21
0.18943751 4.3982697 1.6078647 200 200 200
0.22257952 4.4344196 1.5841821 202 202 202
0.92901945 4.3892078 2.3255796 143 143 143
-1.6594988 4.6170211 1.5580915 249 249 249
-1.5622174 4.6899233 1.351516 223 223 223
-1.5672312 4.6882091 1.3302218 255 255 255
-1.5867996 4.7464747 1.3391626 91 91 91
0.71346325 4.3678036 0.8757956 33 33 33
-0.024711695 3.878732 1.7133192 227 227 227
-0.24740599 3.5570941 1.1586269 133 133 133
0.75717479 5.0932422 1.9444267 92 92 92
-0.12709835 4.0128517 1.9406918 95 95 95
0.03518464 4.0371256 1.9559703 44 44 44
2.1957545 4.5041552 1.9583688 91 91 91
-0.22757581 4.0706639 1.9633073 118 118 118
-0.21013267 4.0415592 1.9763085 198 198 198
0.042668205 4.0486598 1.9575255 33 33 33
0.45527667 4.6490211 2.1767251 181 181 181
-0.15913804 3.4834769 1.0913591 77 77 77
2.7371178 3.6832705 0.34412855 133 133 133
0.10969744 4.0816522 2.0060432 252 252 252
-0.21241406 4.0170445 1.9834799 83 83 83
0.05750829 3.7550488 1.5384864 255 255 255
-0.24602987 3.5506012 1.1110357 170 170 170
0.33732846 4.5817304 2.0914564 218 218 218
-0.16891523 3.8408275 1.7191824 79 79 79
-0.22241737 3.5218644 1.1205659 107 107 107
-0.24359933 4.0204225 1.9644892 127 127 127
3.1531668 3.809339 0.16484682 94 94 94
0.24822788 3.9753149 1.6739484 74 74 74
1.6097465 3.3587008 0.12479804 66 66 66
-0.20844802 4.0902147 1.9824156 102 102 102
1.7922227 4.4741225 2.1831143 162 162 162
0.11801788 3.8918552 1.4577971 249 249 249
-0.20916018 3.7923465 1.4959414 82 82 82
1.5737501 4.5764117 0.97946006 222 222 222
-0.2520858 3.4888828 1.1395264 84 84 84
-0.20611967 3.7683291 1.5176688 140 140 140
-0.28202161 3.9685335 1.9415362 74 74 74
0.25557831 3.7071073 1.2936509 205 205 205
2.8520863 2.4853489 1.0008416 255 255 255
3.3575704 2.5225108 0.90965813 255 255 255
2.5340712 2.0602076 1.0592893 238 238 238
3.2099519 2.2814379 0.92340922 177 177 177
3.2246354 2.5703812 0.98532605 190 190 190
1.3381853 3.3188481 0.1980928 48 48 48
0.12448129 3.3208709 0.83274066 80 80 80
4.0186319 3.5508773 0.80831844 215 215 215
4.2555447 3.6187851 0.79100353 207 207 207
-0.25451553 3.6091509 1.281517 78 78 78
2.4086437 4.6595378 1.9816076 81 81 81
-0.21910338 3.8918147 1.9121214 84 84 84
-0.20590967 3.7165141 1.5007244 116 116 116
-0.21579705 3.7361014 1.7111336 81 81 81
1.851807 4.4256449 1.0213231 145 145 145
2.9432924 2.8251064 0.019722329 22 22 22
3.0378115 3.5704536 1.9760265 51 51 51
2.8648417 3.5088353 1.9674246 51 51 51
0.8012743 3.9834352 1.1774999 75 75 75
2.0140824 4.512054 0.98879355 74 74 74
3.1421382 3.6838953 0.93848926 65 65 65
-0.1926056 3.9317398 1.9321182 44 44 44
1.42927 5.8734641 1.0145503 133 133 133
-0.22281435 3.7059929 1.5432382 104 104 104
1.3083042 4.5148463 0.99301708 235 235 235
3.2196395 1.9200243 0.92727083 97 97 97
2.923244 1.9611109 1.1817892 213 213 213
-0.021580851 2.7828856 1.0898385 20 20 20
0.38457251 4.677423 1.993229 124 124 124
2.2326152 4.5099783 1.9514087 40 40 40
3.1702771 2.6202064 0.95316982 186 186 186
2.7265947 1.9601616 1.0304247 97 97 97
0.31314027 4.5697174 1.9830623 124 124 124
1.7593331 3.3071234 0.072015151 19 19 19
0.6041736 2.8905869 0.80116189 30 30 30
-0.19112143 3.8947899 1.9146602 79 79 79
3.0062377 1.8352088 1.9358393 78 78 78
0.50543988 4.4838042 1.3442752 248 248 248
0.1279256 3.7514968 1.486028 54 54 54
2.911418 3.4675632 1.0069569 49 49 49
2.9481647 1.3745977 0.3238982 62 62 62
3.488394 1.2791456 0.21725576 49 49 49
2.9827914 1.3522357 0.24791263 26 26 26
3.2496839 1.3091943 0.24072193 24 24 24
3.1096377 1.324255 0.16946124 22 22 22
-0.074159823 3.8390117 1.7090213 27 27 27
2.7370422 2.699244 1.0180967 255 255 255
3.6934621 2.5921085 1.0252752 168 168 168
3.1918113 3.5434804 0.9377932 92 92 92
2.3235586 4.5682478 1.9581597 40 40 40
2.1627123 3.58618 -0.32946134 22 22 22
3.1352148 1.8077142 1.9426398 50 50 50
2.226135 4.7118864 0.9247371 154 154 154
1.5071416 4.8812571 0.89591146 188 188 188
0.66905743 4.3820705 1.2803673 164 164 164
2.2774723 4.7462254 0.92238903 166 166 166
4.1084533 0.90970749 0.26184011 25 25 25
3.535676 1.1738873 0.40544122 52 52 52
2.7852619 1.4011148 0.4380303 58 58 58
0.70689827 1.803756 1.0830102 25 25 25
2.9717221 1.4124528 0.16064136 35 35 35
2.7744446 1.303299 0.32426983 23 23 23
2.9844649 1.2073629 0.3539995 24 24 24
3.0203443 1.2947649 0.20164625 51 51 51
3.0479701 1.2861208 0.26505405 26 26 26
2.0720611 2.5110009 0.33793187 28 28 28
0.050113086 3.8458674 1.7737172 109 109 109
-0.19794257 3.7313476 1.4983684 96 96 96
2.7846551 1.4162183 0.26838183 51 51 51
3.1721714 1.3383911 0.30344087 59 59 59
2.6105173 1.4437515 0.33674455 54 54 54
3.2557013 1.3262949 0.17453276 54 54 54
2.655076 1.3792707 0.36596894 52 52 52
3.0140791 1.3560606 0.42510313 26 26 26
2.891587 1.3780761 0.39466119 26 26 26
2.658139 1.3755754 0.3432458 51 51 51
1.4881912 3.2294736 0.17883234 43 43 43
3.3225734 2.5307086 0.92742646 255 255 255
3.1171227 1.8891028 2.1868289 162 162 162
1.5907465 4.565567 0.98341292 255 255 255
1.5844953 4.7130356 0.94258732 226 226 226
2.8633468 1.0716956 0.57573265 58 58 58
3.0566146 1.2542502 0.54789513 26 26 26
3.259908 1.0810939 0.42682874 53 53 53
2.3417032 1.3968099 0.73236543 53 53 53
-0.21153739 3.6155889 1.2619634 105 105 105
2.9284694 1.3779809 0.29246491 58 58 58
2.8076046 1.4075141 0.42561948 62 62 62
3.0250032 1.0138881 0.2941637 56 56 56
3.2909124 0.95247829 0.31108916 55 55 55
2.8451784 1.0472324 0.3499763 53 53 53
2.9854693 1.0235276 0.35439765 56 56 56
2.9636693 1.2015637 0.25480992 53 53 53
2.9609997 1.0927631 0.36665094 53 53 53
3.1886644 1.2758129 0.32064229 55 55 55
3.0236881 1.3454317 0.32069457 27 27 27
2.9228506 1.0551891 0.35575908 26 26 26
3.0318527 1.0322082 0.38190299 26 26 26
3.1805036 1.9819554 1.8858057 224 224 224
1.5159098 4.5168223 0.99908459 208 208 208
2.2785327 4.7871442 0.91284394 214 214 214
3.2614236 1.3197184 0.45449758 63 63 63
2.9474833 1.4123724 0.52008015 51 51 51
2.9696968 1.3708211 0.57129097 28 28 28
2.6074092 1.3403461 0.65243781 53 53 53
2.7402551 1.3489794 0.27741647 30 30 30
3.0593076 1.158915 0.33921748 25 25 25
3.2169566 1.3403413 0.47107869 63 63 63
3.1881883 1.3313824 0.505005 28 28 28
2.8749621 1.4337922 0.64544195 44 44 44
2.7828207 1.3387387 0.25481057 30 30 30
3.0334005 1.3830211 0.29172677 48 48 48
3.0917377 1.9842577 1.8837702 224 224 224
2.9691148 2.492379 0.98553771 231 231 231
1.7792273 4.4829006 2.1810718 208 208 208
3.104109 1.9497428 1.8624606 192 192 192
0.3885251 4.5626311 1.6915951 65 65 65
2.4711692 5.0090733 0.85036147 238 238 238
2.3657236 4.9064417 0.8802678 238 238 238
3.1101396 3.361726 0.97242963 169 169 169
3.5797939 2.6752434 0.87753689 190 190 190
3.1006637 2.3340125 0.94210386 170 170 170
3.2926624 1.3086319 0.41238558 58 58 58
3.1422222 1.9083122 1.9134974 204 204 204
3.0531042 1.3188819 0.51560336 28 28 28
1.8188554 1.4334204 0.89399183 26 26 26
2.9379387 1.0975927 0.35815573 55 55 55
2.4937925 1.3090702 0.48031789 55 55 55
1.4797662 1.5599939 0.88146472 55 55 55
2.8271108 1.1342129 0.41444474 27 27 27
3.7757328 2.3159335 0.81225485 146 146 146
3.2136502 1.3250939 0.52591187 29 29 29
2.7369297 1.263245 0.4324823 28 28 28
1.1218885 4.4714446 2.2842922 186 186 186
1.0604229 4.554203 2.3199806 219 219 219
3.6119864 1.9493847 1.9019568 229 229 229
1.7211529 4.3908319 1.0461553 211 211 211
3.2791784 3.3638916 0.94486785 215 215 215
3.3594038 2.7063603 0.94510907 247 247 247
3.4075594 0.90202242 0.39295721 55 55 55
4.2876539 0.88378876 0.1737778 30 30 30
3.2976069 0.96465111 0.5267393 48 48 48
0.33429244 3.8101056 1.0865662 158 158 158
3.1755202 2.873405 -0.0849507 25 25 25
3.098629 0.99368918 0.17040364 54 54 54
3.0877812 1.948347 1.8775181 194 194 194
2.9915082 1.1053886 0.56750709 56 56 56
2.2324982 1.3578807 0.61552638 55 55 55
1.6685985 4.3807945 2.1613441 219 219 219
0.26286504 4.0703373 1.4273012 243 243 243
2.9916101 1.3598838 0.508717 60 60 60
3.1270962 1.1656213 0.46482843 31 31 31
2.291923 1.3292055 0.6193037 26 26 26
3.5477579 1.0550661 0.12648039 55 55 55
2.4637375 1.2460341 0.52265298 26 26 26
0.78558016 4.4110661 1.9155203 193 193 193
1.2454535 4.6469202 0.99995691 220 220 220
1.9746528 4.6217504 0.96448582 255 255 255
3.1186228 1.115724 0.52734226 30 30 30
3.0059264 0.9996326 0.13627712 56 56 56
0.89472646 4.3566175 2.2694509 210 210 210
3.0639002 1.2859855 0.34259474 55 55 55
3.1207604 1.2909867 0.27756089 31 31 31
2.9851363 1.0417973 0.39033967 32 32 32
1.5038257 4.5789237 2.2393928 223 223 223
1.1722362 4.5358596 2.3453481 121 121 121
2.8351107 1.8821276 1.8686581 180 180 180
1.2959154 4.3989811 1.0236238 163 163 163
1.48851 4.5352364 0.98408449 77 77 77
3.1837256 2.5663884 1.1442611 184 184 184
3.0509474 1.9097099 1.8370697 218 218 218
1.369434 4.4746547 1.0121468 162 162 162
1.8380157 4.6222444 1.5197768 210 210 210
3.2672822 2.6407003 2.2598243 201 201 201
1.8907344 4.4524331 1.2374048 245 245 245
3.2886634 2.5780663 2.4013255 158 158 158
2.5846794 5.0910206 1.2658769 218 218 218
3.0901654 1.3321015 0.15109341 65 65 65
3.0953596 0.96786034 0.10648404 59 59 59
3.0537949 1.0514387 0.31828898 55 55 55
1.9905218 1.332085 0.55541128 57 57 57
3.0774574 1.3311557 0.4268626 32 32 32
2.9780061 1.0796622 0.18141972 29 29 29
1.1050496 0.33717221 0.19510733 63 63 63
3.4346576 2.6736634 2.4368973 150 150 150
3.8829389 2.7069292 0.88580942 152 152 152
3.112586 2.5546272 1.0639585 163 163 163
3.2426958 0.96244836 0.46501321 70 70 70
3.2383533 1.36959 0.34261012 52 52 52
3.0376525 1.3789533 0.25209481 47 47 47
1.4833673 1.3261945 0.85955954 54 54 54
3.1109192 0.99399513 0.21932225 29 29 29
0.49447885 1.0007671 0.6403439 75 75 75
1.0311525 0.67049599 0.44660431 65 65 65
3.3171365 2.5953519 2.4436569 128 128 128
3.3805511 1.105424 0.32420677 35 35 35
3.0694101 1.2994088 0.51756048 34 34 34
3.1669831 1.8905087 2.3641531 176 176 176
2.673949 1.8549796 2.2762969 189 189 189
3.1737955 1.8999569 2.3351676 193 193 193
3.5473449 3.3866358 2.6695738 177 177 177
2.8828959 0.9865284 0.18958645 62 62 62
3.1005232 3.2706511 2.6234999 215 215 215
3.449275 3.4308181 2.7541127 247 247 247
3.2899871 1.8246312 1.9513526 106 106 106
3.2493751 2.1286721 2.4479849 222 222 222
3.1754024 1.8110069 1.9646978 117 117 117
2.9363656 2.5978818 2.4313633 173 173 173
3.2947197 2.0024829 2.4164555 245 245 245
3.4071343 2.7938192 2.5396109 209 209 209
2.9071555 1.9050292 2.2020175 228 228 228
4.6698575 2.0767591 2.5238934 255 255 255
3.3797522 2.5157633 2.5358281 246 246 246
3.1441453 2.7035694 2.4834659 209 209 209
2.9391596 -1.855777 1.0566229 113 113 113
3.256146 1.1003333 0.062475666 44 44 44
3.0765736 0.94551557 0.26708311 53 53 53
3.0960913 1.040812 0.17274354 68 68 68
3.883847 1.231832 0.095281765 71 71 71
3.1949987 1.0050815 0.42002451 48 48 48
3.8800147 1.0567135 0.1391152 46 46 46
1.7616279 -0.92941624 0.14618783 78 78 78
1.7573283 -0.85640931 0.1726601 49 49 49
1.7906408 -0.9812758 0.15139417 50 50 50
1.1672372 -0.19683176 0.024376856 24 24 24
1.1358362 -0.1651586 0.044627413 24 24 24
2.9162827 3.1842704 2.5750167 215 215 215
3.4111223 3.4374094 2.7377274 196 196 196
2.8147187 1.0680037 0.45765054 70 70 70
2.1445336 1.2256143 0.81852657 47 47 47
1.2517371 0.40557504 0.37569332 77 77 77
3.3676033 2.6777687 2.3963101 218 218 218
3.2771511 2.5842001 2.4239435 192 192 192
3.2736712 2.5903487 2.4770803 153 153 153
3.0893242 2.5976701 2.6075964 211 211 211
3.0764441 2.5250018 2.3432789 242 242 242
3.0271223 1.9114355 2.2541478 212 212 212
3.0930874 -1.8796895 1.8162347 111 111 111
2.8424177 -1.8786913 1.3116182 28 28 28
2.4834168 -1.1545917 0.91947109 79 79 79
3.0891614 -1.9027871 1.3971815 243 243 243
1.6056572 -0.96072441 0.079035029 63 63 63
1.9833977 -1.4072143 0.11383097 32 32 32
1.1763437 -0.057670563 0.032466635 37 37 37
0.96419203 0.25554305 0.042789683 33 33 33
3.383189 2.7050595 2.4452829 255 255 255
3.2403073 2.6367757 2.373544 218 218 218
3.2184331 2.5660183 2.3786638 223 223 223
3.2406597 2.1550426 2.4484529 220 220 220
3.3409345 3.0679066 2.5738473 218 218 218
3.1052792 -0.36700517 1.9976439 168 168 168
3.2413616 -0.5481776 2.0405893 254 254 254
3.5492864 -0.5450027 2.0405843 141 141 141
3.1681979 2.5563126 2.5974817 173 173 173
3.5738745 2.7558753 2.4479222 218 218 218
3.1942165 -0.52130955 2.3841124 225 225 225
3.0200381 -1.978247 2.1206198 177 177 177
3.3071804 -2.2061176 2.24505 165 165 165
3.0651944 -2.0290301 1.20544 161 161 161
2.3776741 -1.107829 0.9670732 181 181 181
3.0632951 -1.9709506 1.2157317 132 132 132
3.0490675 1.3815427 0.1667103 68 68 68
3.136796 0.97314858 0.12843262 87 87 87
3.4704158 0.92372084 0.18442588 64 64 64
0.78685218 0.96232766 0.49409175 97 97 97
1.1137605 -0.30079898 0.098500893 44 44 44
0.81350601 -0.56257218 0.11570381 44 44 44
0.65290511 -0.50123185 0.072275147 99 99 99
3.204267 2.5618732 2.377383 245 245 245
1.4632556 1.9806359 2.1401403 161 161 161
2.9313848 1.3273607 0.41632921 41 41 41
1.0722704 -0.40177736 0.020615088 68 68 68
1.3295295 -0.14199167 0.047195897 35 35 35
3.0646992 2.5140953 2.3577549 245 245 245
3.2358968 -0.60001749 2.0211899 183 183 183
3.2992246 -0.46207848 2.0331397 182 182 182
3.3391967 2.6145961 2.6963401 231 231 231
3.071368 2.593246 2.6098349 229 229 229
3.2924051 2.5954556 2.480099 162 162 162
3.4679501 2.6580653 2.5341115 149 149 149
3.225322 1.9056939 2.3101299 251 251 251
3.029599 1.8642281 2.3383775 180 180 180
3.1773734 1.9445487 2.4053473 141 141 141
2.426518 -0.00062183914 1.8968139 47 47 47
3.5742583 2.5745192 0.85600972 188 188 188
3.265399 -2.0089402 1.0907017 108 108 108
3.2130048 1.3863944 0.32254648 67 67 67
1.8449872 -0.99991459 0.09839271 95 95 95
1.5487025 -0.94551343 0.10514937 110 110 110
1.7681599 -1.0956575 0.10920249 18 18 18
1.7306421 -1.0920132 0.11764847 40 40 40
1.9272591 -1.3836521 0.028420078 124 124 124
1.858018 -1.0521448 0.046394095 54 54 54
0.80491078 0.59340173 0.4637292 49 49 49
1.1356155 -0.36032385 0.070871696 54 54 54
0.84784883 -0.82082701 0.035524234 16 16 16
1.3612056 -0.39683101 0.0787379 32 32 32
0.9942646 -0.35477236 0.13145171 27 27 27
0.93186611 -0.66596413 0.0030109752 15 15 15
1.0502328 -0.58323485 0.028563367 48 48 48
3.3808532 1.9579445 2.3851752 197 197 197
2.7993014 2.0281909 2.3506348 237 237 237
3.1176977 -0.53609961 2.3596964 211 211 211
2.4604726 -0.0076163607 1.7573063 40 40 40
2.6356785 -1.6720909 1.7929401 139 139 139
1.8344269 -1.2716463 0.146273 50 50 50
1.8820227 -1.6505922 0.056539878 67 67 67
0.71182269 -0.5775485 -0.03892006 52 52 52
0.97762263 0.2161514 0.089415357 50 50 50
0.99292868 0.14610998 0.084167227 29 29 29
1.2470434 -0.076636836 -0.00034488554 22 22 22
3.2722764 1.9629236 2.4284375 141 141 141
3.2947376 -0.62657827 2.0331531 162 162 162
3.1525173 -0.51454628 2.0247204 255 255 255
1.6421354 -0.93993151 0.099848077 19 19 19
3.2323859 -0.52996737 2.3832479 243 243 243
2.938596 -1.8952461 1.3070098 143 143 143
3.8295732 2.7764888 2.8022463 207 207 207
3.2100282 2.638063 2.589963 162 162 162
3.0872691 1.9122381 2.2981303 227 227 227
3.0157769 -1.8869096 2.3845351 86 86 86
3.2220531 -2.0904562 2.3899293 136 136 136
2.9867675 -1.9651945 2.1416605 136 136 136
2.8397434 -3.0385537 1.8869663 16 16 16
3.1490402 -2.042352 1.2893943 247 247 247
2.9918106 1.3742515 0.18979923 71 71 71
3.0895782 1.3769461 0.27788103 77 77 77
2.8939402 0.98544884 0.34199715 89 89 89
3.1969006 0.97259349 0.10477762 76 76 76
3.2066364 1.3763177 0.4845463 79 79 79
3.2526953 0.97471648 0.042502984 86 86 86
3.3588791 1.3620334 0.043943033 86 86 86
3.1342311 0.94166905 0.25091875 55 55 55
4.2136564 1.2871034 0.21193002 57 57 57
3.304213 0.93592888 0.19418989 55 55 55
2.189137 1.0524627 0.56139535 51 51 51
3.0000265 1.047272 0.41346973 80 80 80
3.1074688 1.325374 0.43944561 42 42 42
3.4056098 1.1840014 0.50445664 95 95 95
2.1960933 -1.8200468 -0.050400391 29 29 29
1.7753203 -1.0729407 0.058943972 20 20 20
1.3139809 -0.89306629 0.22903113 117 117 117
1.7369804 -1.5334996 0.13765715 78 78 78
1.0661434 0.67200261 0.42597514 88 88 88
0.81548423 0.34753767 0.45983636 35 35 35
0.68297076 0.78427434 0.43639994 102 102 102
1.8198555 0.63091165 0.13203321 34 34 34
0.42514679 -0.29343039 0.23139416 80 80 80
1.3883857 -0.26489466 0.066513285 41 41 41
0.81968665 -1.0749273 0.090734765 60 60 60
0.48316476 -0.23050147 0.57748592 88 88 88
0.80576557 -0.79567122 0.25838947 31 31 31
0.98533803 -0.42215735 0.12224536 48 48 48
3.2762904 2.5430663 2.6341674 219 219 219
3.2202969 1.9391501 2.3589272 193 193 193
3.3835227 1.9301015 2.4131532 208 208 208
2.8552999 -1.7836655 2.1277952 140 140 140
2.9556489 0.029313846 -0.19340803 61 61 61
2.0985615 -1.0476265 0.13135998 48 48 48
1.4191262 -0.89621639 0.11349963 31 31 31
0.87399566 0.94810963 0.4356156 102 102 102
0.058034867 0.36641139 0.84662807 22 22 22
3.5099924 2.6862741 2.4429762 224 224 224
1.7914753 -1.117137 0.09624438 19 19 19
1.1912893 -0.41137561 0.026812421 52 52 52
1.0965402 -0.28802374 0.11617361 45 45 45
1.1161911 -0.45345452 0.080589518 68 68 68
1.2344462 -0.43697688 0.1106305 20 20 20
3.1391661 -1.8896986 1.3613288 157 157 157
3.9768548 1.1468648 0.3523016 41 41 41
3.3434231 1.0525299 0.51513886 97 97 97
3.1555631 1.3551877 0.31745762 89 89 89
3.3648708 1.2942218 0.51007676 96 96 96
3.180443 1.0924678 0.1120498 72 72 72
5.7229414 1.1858262 -0.12115814 63 63 63
3.05757 0.95359933 0.389714 63 63 63
3.4983153 1.3347881 0.48359466 81 81 81
1.6715683 -1.4713337 0.19472073 26 26 26
0.4968892 1.1289414 0.83548069 23 23 23
1.1601278 -0.22277686 0.012779104 61 61 61
1.331229 -0.04951534 0.11395262 23 23 23
1.0878011 0.068367109 0.10482369 29 29 29
1.5426511 -0.13709903 -0.027485503 50 50 50
1.2808876 -0.17517543 0.048184618 36 36 36
0.6397925 -0.95928401 0.13821124 69 69 69
0.80141848 -0.9895795 0.11001895 57 57 57
0.79117435 -0.43772921 0.17701636 51 51 51
2.0004787 1.9041898 2.1805086 249 249 249
3.1442664 -1.9461173 1.3849815 221 221 221
3.252234 1.2141893 0.39910853 44 44 44
3.1816399 1.1573372 0.11011164 35 35 35
5.7511539 1.097464 -0.80386531 72 72 72
1.8788072 -1.8932214 0.012837278 114 114 114
1.4237906 -1.1024973 0.29670703 127 127 127
0.90250504 0.75562769 0.35203105 112 112 112
0.75378984 0.49327859 0.49743187 104 104 104
0.90162522 -1.0481853 0.055203423 90 90 90
0.71241802 -0.76064801 0.12563913 29 29 29
1.047367 -1.3100245 0.066715702 92 92 92
2.1169155 -1.1338348 -0.019784821 58 58 58
2.2086649 0.06549985 1.8689722 41 41 41
3.0670311 1.1534518 0.57927531 80 80 80
1.5685135 -0.81685269 0.16759305 21 21 21
1.4343647 -0.80236268 0.10370527 61 61 61
1.3093226 -0.92154932 0.12144594 57 57 57
1.5087993 -1.0848083 0.017258512 63 63 63
0.92617977 0.69367343 0.50546765 96 96 96
0.9050408 -1.0781046 0.072532758 105 105 105
0.77759397 -0.97400993 0.10089593 93 93 93
0.99616152 -0.38432232 0.097480282 53 53 53
0.72897393 -0.99734455 0.16672121 30 30 30
0.95962787 -0.84517437 0.23789696 44 44 44
0.89654911 -1.1153677 0.0027466882 86 86 86
0.74776483 -1.0690627 0.039886102 98 98 98
2.5022972 -0.0045776903 1.9153861 89 89 89
3.333391 0.15032996 1.9745802 54 54 54
3.1866045 0.98076141 0.45773536 95 95 95
1.5975572 -0.92684692 0.15929537 22 22 22
1.5101719 -0.76558602 0.11193071 44 44 44
0.78860718 -0.93046558 0.16734688 105 105 105
0.75443602 -0.96711117 0.23257689 80 80 80
1.3812882 -0.54506296 0.086419269 46 46 46
0.56800485 -0.61270708 0.41126943 52 52 52
0.63627481 -1.0431361 0.10071264 94 94 94
1.841796 -1.4663616 -0.70792937 49 49 49
3.1647081 1.0913811 0.11922906 65 65 65
3.3344252 1.3187739 0.52126539 83 83 83
3.2948353 1.06994 0.52616513 96 96 96
3.1197455 0.99015063 0.55272287 33 33 33
2.9524956 1.3436228 0.45930326 36 36 36
2.6425874 1.0293032 0.52373672 57 57 57
1.2491807 -0.43590364 0.033312663 54 54 54
0.69912583 -0.93538254 0.18146829 100 100 100
3.1478858 0.97197461 0.49078965 90 90 90
0.86945152 0.45896515 0.42726213 108 108 108
3.1160281 1.8030506 1.9353251 132 132 132
2.8808992 -1.7760453 1.8109492 141 141 141
2.8912935 1.2907391 0.55207753 64 64 64
1.158777 -0.92058086 0.12570982 31 31 31
0.45057917 0.038256049 0.55449575 32 32 32
0.99079657 -0.42745963 0.075926289 29 29 29
1.0429059 -1.2016984 -0.056921139 100 100 100
0.74871242 -1.1317263 0.1296358 73 73 73
0.62951714 -0.87654591 0.24671035 40 40 40
1.0015554 -0.45821023 0.1154062 31 31 31
2.9696279 1.0264925 1.9371957 131 131 131
2.339267 0.035553005 1.7477633 69 69 69
2.853929 -1.8983252 1.6556244 59 59 59
3.0397782 -2.4980791 1.801313 54 54 54
2.7102981 -2.6285758 1.8570598 51 51 51
0.56585991 -1.482913 0.2147706 123 123 123
1.1100456 -0.42423335 0.051053867 30 30 30
0.48270646 -1.6739662 0.10008459 29 29 29
5.0444465 1.2457036 0.12693058 157 157 157
2.99283 1.2841023 0.59702575 153 153 153
3.1667383 1.0753136 0.52315426 108 108 108
0.87979412 0.31663176 0.44735169 111 111 111
0.85863453 -1.1888757 0.12607758 100 100 100
1.3894163 -0.40462437 0.12563525 109 109 109
0.93289405 -1.1750995 0.096890077 172 172 172
1.1613876 -1.1719871 0.020314442 42 42 42
1.0431627 0.64821291 0.45825285 60 60 60
1.4420393 -0.54973328 0.09993194 57 57 57
2.3182425 0.040804405 1.7318271 92 92 92
2.5432844 0.050700139 1.6207806 155 155 155
2.8875721 -0.17250633 1.4782032 130 130 130
3.1156738 -2.5559363 1.544785 28 28 28
3.355135 -3.5827291 2.2809017 89 89 89
3.2707479 1.3093419 0.49705875 117 117 117
3.0244083 1.3384447 0.58563256 55 55 55
3.1138718 1.2714752 0.53045505 143 143 143
3.0893645 1.3176765 0.56010467 57 57 57
3.38271 1.1360844 0.46986806 92 92 92
3.1160476 0.96747112 0.57671028 100 100 100
3.0954926 1.0540712 0.53824675 145 145 145
3.0059016 1.0318209 0.53102201 86 86 86
2.5332303 -1.6283555 1.0793034 223 223 223
3.4284673 -2.0023284 0.74827981 247 247 247
3.1976392 -1.9644864 0.2645008 46 46 46
3.5640342 1.4059755 0.32864553 55 55 55
2.9227855 0.9680981 0.32819337 155 155 155
1.5880903 0.55450815 0.19433562 33 33 33
1.2840958 -0.42542514 0.057901606 33 33 33
1.0266657 -0.86346239 0.16682892 183 183 183
1.4104937 -0.085047007 0.067257866 45 45 45
0.97967201 -0.41919982 0.38825136 70 70 70
1.7213504 -0.93042636 0.058956131 42 42 42
0.60829693 -1.6640252 0.26773626 146 146 146
0.79171896 -2.1453614 0.060179457 179 179 179
0.72629619 -1.9185321 0.094200417 131 131 131
0.92496496 -2.251461 0.065986022 175 175 175
0.99884474 -2.2000937 0.047283754 185 185 185
0.74021554 -1.9822389 0.19498973 154 154 154
0.78747189 -1.8720506 0.20831238 196 196 196
0.82762134 -2.2720585 0.080299065 112 112 112
0.94508386 -2.0967 0.019667374 31 31 31
1.1194069 -2.0967867 -0.033210889 196 196 196
0.79241973 -1.7849207 0.23118667 130 130 130
0.53297704 -1.7296942 0.08096163 61 61 61
0.70959681 0.79216272 0.42554218 182 182 182
0.71997988 0.53934097 0.27724814 117 117 117
0.54503369 -0.42383173 0.1178178 78 78 78
0.53308791 -0.39908004 0.18150352 215 215 215
0.57558799 0.4131504 0.18182634 53 53 53
0.84845287 0.10349805 0.18378739 50 50 50
0.23786783 -1.5633996 0.10155468 63 63 63
2.8087392 -3.0062914 1.8775296 43 43 43
1.0095972 -0.3258653 1.6981986 159 159 159
3.0154207 0.97556454 0.49699128 148 148 148
0.65304512 -1.7096356 0.064599022 37 37 37
0.64831322 -1.8936415 0.058936581 103 103 103
1.3233101 -0.41975623 -0.036679283 78 78 78
2.4697182 -2.3622508 2.0294101 102 102 102
3.2406588 -3.1321354 1.9114398 74 74 74
3.0792344 1.0403684 0.57527065 146 146 146
2.7451468 1.1823604 0.50989205 71 71 71
0.85627145 0.30116463 0.41829902 31 31 31
1.439702 -0.088957474 0.052167997 45 45 45
1.0644166 -0.94303232 0.13940887 56 56 56
3.702071 1.0057346 2.0357869 107 107 107
3.2655814 0.16147339 1.9325904 103 103 103
3.0744243 -2.5432932 1.5955088 70 70 70
1.2464286 -3.2802677 1.6270272 129 129 129
3.162931 0.95912588 0.52627563 58 58 58
3.1657839 0.96093941 0.41446221 55 55 55
3.740171 -2.3925018 0.13145195 27 27 27
3.2631328 -3.3697588 0.06441544 22 22 22
2.4399557 -1.1441118 0.8256765 173 173 173
1.5857991 -0.96059638 0.09286432 155 155 155
2.1718137 -1.5428767 0.034236893 55 55 55
1.4523007 -0.58699876 0.043039069 92 92 92
1.2807966 -0.33795884 0.090953991 28 28 28
1.5553883 -2.5214806 -0.050999418 119 119 119
1.1244442 -2.1813738 0.098758981 117 117 117
0.91938001 -2.0228207 0.099121258 150 150 150
0.83055741 -1.9160837 0.15275787 168 168 168
1.1138468 -2.2114329 0.12549447 63 63 63
0.23565535 -0.40768331 0.16057031 59 59 59
0.58062804 0.21007922 0.069780335 131 131 131
3.0363209 -2.0069501 0.36533022 129 129 129
2.0653524 -1.2544596 0.60869884 55 55 55
3.0517936 -1.7944903 0.70730197 78 78 78
4.0331383 -4.1916647 -0.17828788 22 22 22
0.75515026 -1.81523 0.060540423 49 49 49
1.8642974 -3.0801172 -0.09264566 38 38 38
0.65096289 -1.8754047 0.11181067 62 62 62
0.78249902 0.51776212 0.11404048 85 85 85
0.20263045 -1.5130166 -0.046784773 40 40 40
0.436003 -1.4369198 0.041706905 89 89 89
0.71731734 -1.9001416 0.10903554 150 150 150
1.3418677 -1.1078684 0.013562189 110 110 110
2.8847463 -3.0909317 1.8840892 37 37 37
1.0068855 -0.66068798 0.012185561 62 62 62
3.2871439 0.12252416 1.9339969 165 165 165
2.4342167 0.045969039 1.745716 207 207 207
3.1333921 -2.0931046 1.5577472 58 58 58
1.8771572 -1.2617886 1.3956189 83 83 83
3.0874014 0.94479394 0.58134079 123 123 123
3.7920144 -2.2474263 0.64283174 201 201 201
4.3670826 -2.7593529 -0.28838801 27 27 27
2.997858 -2.9676654 0.17292081 183 183 183
3.062633 -1.9933287 0.35444945 158 158 158
1.3468872 -0.38594109 0.098290727 51 51 51
0.26335803 0.13001876 0.64221281 103 103 103
0.50217789 -1.5403677 0.32553434 255 255 255
0.83615398 -2.2083158 0.027519213 242 242 242
0.84787446 -2.0456645 0.082961425 255 255 255
1.8582417 -3.095433 -0.092023864 49 49 49
0.52347088 -1.7217731 0.039457068 103 103 103
3.6025145 1.0315468 2.0130413 128 128 128
3.0091286 -3.011632 1.9630231 165 165 165
2.5484595 -2.7659624 1.9627341 49 49 49
1.1697898 -3.0871668 1.6039574 191 191 191
4.3840866 -2.8041124 -0.30716538 27 27 27
3.0019486 -1.8313359 0.76789892 164 164 164
1.2987278 -0.36614642 0.12708776 51 51 51
1.1792924 -0.38047466 0.12334459 40 40 40
0.79371887 -1.063275 0.10510252 183 183 183
0.6482892 0.23887263 0.097561523 21 21 21
0.17896891 -1.6559601 -0.07212545 39 39 39
3.2537639 0.11092651 1.9438676 190 190 190
3.3125575 -2.5516298 1.6006044 111 111 111
3.780916 -3.7477071 -0.090057865 188 188 188
3.0912015 0.91531074 0.13163678 35 35 35
1.1720428 -2.0892146 0.021158086 232 232 232
3.0340128 -1.9376006 0.12408446 27 27 27
2.5514746 0.047619585 1.5345203 165 165 165
3.0142117 -1.9927313 1.2870479 100 100 100
2.0378571 -1.7643672 1.3155811 68 68 68
3.2843029 -2.023104 1.1900985 235 235 235
3.6358671 -3.6877465 1.2112963 140 140 140
2.6042483 -2.648411 2.0067222 172 172 172
1.1566775 -3.0449569 1.5334985 181 181 181
3.2578056 1.004388 0.37580353 64 64 64
1.924575 -0.8787024 0.75047302 116 116 116
3.2404778 -2.0624759 0.25685364 39 39 39
3.1554751 -1.9081829 0.6689263 101 101 101
2.2417378 -4.8783588 0.66660249 176 176 176
1.7751729 -0.059643865 -0.13657905 95 95 95
1.3689584 -0.0090637617 0.11057906 41 41 41
1.4755006 -0.48915699 0.026228534 94 94 94
1.1297379 -1.4663974 -0.075804248 140 140 140
0.80037969 -1.0055664 0.081063196 255 255 255
1.016355 -0.55620921 0.05226849 136 136 136
1.4017737 -2.479708 -0.23727156 229 229 229
1.5311835 -1.139017 -0.030700577 116 116 116
0.89585698 -0.54862106 0.081072614 100 100 100
0.9258306 -0.52138758 0.08327435 103 103 103
1.1103725 -1.2830855 -0.060637608 76 76 76
0.95335168 -1.6133312 -0.094082609 160 160 160
1.3452643 -0.61539495 -0.11966087 150 150 150
1.1700885 -1.3547951 -0.073095217 95 95 95
0.91136718 -0.89270645 -0.03877081 159 159 159
1.7502472 -1.1274234 -0.06240882 93 93 93
0.99684191 -0.57512552 0.065019116 62 62 62
1.2467269 -2.6451223 -0.1853558 158 158 158
0.92365944 -2.510618 -0.06937708 144 144 144
0.5209555 -1.6933187 0.11664306 48 48 48
1.3007848 -2.6154618 -0.19921829 254 254 254
0.91985488 -1.9866102 0.0070106853 52 52 52
0.93781513 -2.2488809 -0.08125104 231 231 231
1.0633514 0.093777157 0.055785283 77 77 77
1.0148748 0.18655507 0.11205278 71 71 71
0.75192326 0.52221251 0.10895728 24 24 24
0.92405635 0.26317525 0.076547489 66 66 66
0.78839338 0.55318564 0.22204296 138 138 138
1.0059508 0.058052164 0.08221738 33 33 33
0.79765683 -0.015563564 0.074324831 200 200 200
2.480572 0.6570273 -0.87315249 87 87 87
0.64806396 -0.51288247 0.077949092 249 249 249
0.1121102 -1.4229668 0.072811112 67 67 67
2.9403276 -1.9442788 0.17337053 201 201 201
3.1220565 -1.9646715 0.24103539 40 40 40
3.1295488 -1.9147953 0.22090702 79 79 79
1.1304058 -2.2721701 0.040152177 255 255 255
0.994537 -2.1149371 -0.15301861 176 176 176
1.3578899 -2.2337315 0.012561547 223 223 223
0.72459382 -2.0118163 -0.073983088 48 48 48
3.3265193 0.16088848 1.9761466 117 117 117
2.4571395 0.040715355 1.7931894 213 213 213
3.5120842 0.14653113 2.0038269 117 117 117
2.6727958 -2.9112039 1.9017038 96 96 96
0.46743119 -1.4867409 0.39918929 158 158 158
0.30034062 -1.7495129 0.014849292 160 160 160
0.072178826 -1.3038906 0.08996217 35 35 35
2.3417602 -2.3365085 1.8406625 85 85 85
3.0073099 -1.8394915 0.75171882 164 164 164
1.1583647 -2.1408257 0.058373794 52 52 52
2.747067 0.13134959 1.8351649 132 132 132
3.963455 -3.7600119 2.1368501 124 124 124
4.872478 -4.5997977 2.5902016 126 126 126
1.2453225 -3.1355534 2.1654952 164 164 164
0.72428185 -3.0917497 1.7662925 183 183 183
2.4326541 -1.0467715 0.8047725 107 107 107
3.2291112 -1.7092479 0.66602445 141 141 141
1.2609997 -0.70128441 1.0023316 129 129 129
0.46612668 -4.3745246 0.95256454 172 172 172
0.22691347 -3.182512 1.1820692 192 192 192
1.2167646 -4.2796254 0.98091227 199 199 199
1.8444929 -4.2313657 1.3206981 162 162 162
0.25687745 -3.2747066 0.74696845 183 183 183
1.4241818 -0.45736691 -0.099631682 130 130 130
1.4979632 0.15743579 0.092893466 69 69 69
1.5829798 -0.80393243 0.10541569 46 46 46
1.3524673 -0.1331538 0.073657975 44 44 44
0.96124941 -0.4648076 0.10167842 39 39 39
1.6512426 0.10350972 -0.030582203 92 92 92
1.2576636 -0.39586776 0.13291363 30 30 30
1.3628215 -1.4614756 -0.25614166 255 255 255
0.81754178 -1.1826538 0.11713396 255 255 255
1.2380921 -1.9941051 0.12824409 175 175 175
1.055253 -1.0759753 0.090351805 83 83 83
0.96823972 -1.9936994 0.092646465 109 109 109
0.61089188 -0.35124257 0.10764174 236 236 236
0.90756822 0.16532759 0.13669042 79 79 79
0.93972749 0.16273409 0.11359493 79 79 79
0.94574034 0.19878738 0.10422336 59 59 59
0.93308765 0.135747 0.11612652 79 79 79
0.87952858 0.23523833 0.17516468 117 117 117
0.82543373 0.29605445 0.20776658 41 41 41
0.99101251 0.25399593 0.086996898 97 97 97
0.55304438 -0.37387377 0.059656963 225 225 225
3.2062705 -2.0300035 1.2652534 168 168 168
1.8978466 -1.3108292 1.3047628 255 255 255
3.4461706 0.17217475 0.84152973 80 80 80
3.1412072 -3.2294338 0.099407896 92 92 92
4.0774074 -2.5516944 0.65106165 143 143 143
3.2146347 -2.0019064 0.80809075 158 158 158
1.4630933 -3.6057742 1.2242475 167 167 167
1.0470223 -0.33035985 0.098525152 77 77 77
1.2999882 -0.40918571 0.069051012 94 94 94
1.306814 -0.14387065 0.06157802 85 85 85
1.1270071 -0.34906596 0.11566083 133 133 133
1.2343159 -0.29712671 0.078217074 68 68 68
1.3091584 -0.41440165 0.10320495 30 30 30
1.1490446 -0.80779457 -0.14146115 157 157 157
2.4145401 -1.5199229 -0.19986059 57 57 57
1.4570007 -1.3088825 0.26293653 199 199 199
0.52540606 -1.9800526 -0.061220065 94 94 94
0.54328209 -1.7195216 0.00096915849 35 35 35
1.0006558 -4.133431 0.032431945 185 185 185
0.59608376 0.32268915 0.094407067 159 159 159
0.98404223 0.091294535 0.10443895 72 72 72
0.77610689 -0.026418645 0.086045191 197 197 197
2.6370513 -2.6371896 2.026494 174 174 174
2.3428073 -3.965663 1.2259989 173 173 173
1.8885297 -1.2034965 -0.13369192 67 67 67
0.9241876 -1.977163 0.10538326 57 57 57
0.98079854 -2.0838914 0.091711208 166 166 166
2.411289 0.03097203 1.7649901 112 112 112
3.6632295 -2.4541731 1.4867598 107 107 107
2.6507103 -2.2156353 1.6917319 33 33 33
6.2371101 -6.2796326 2.3134766 127 127 127
1.151593 -3.9584339 1.8104287 191 191 191
0.73485863 -3.2575381 2.2438602 110 110 110
0.57468498 -2.9816396 1.7299989 177 177 177
3.3412249 -2.0814791 0.66515529 132 132 132
1.3722217 -4.3352365 0.94640213 213 213 213
0.64284599 -3.0448065 1.0546806 147 147 147
1.4065113 -4.4897261 0.67985755 202 202 202
1.0816038 -4.5177565 0.50129187 195 195 195
1.1792748 -4.4597268 1.4000345 185 185 185
0.48179677 -3.9461939 1.0252112 193 193 193
1.5749273 -5.0318909 0.31719851 243 243 243
1.7039801 -1.3134948 -0.25537872 179 179 179
1.9390259 -1.37292 -0.23614146 169 169 169
2.8581769 -1.6903969 -0.42827845 110 110 110
1.1036996 -1.9363023 0.16535382 201 201 201
1.6427084 -2.4710391 -0.11027934 124 124 124
0.75102866 -1.8154498 0.16874634 67 67 67
1.3628967 -2.5599289 -0.32055235 47 47 47
1.2660882 -1.2994647 -0.21357061 208 208 208
0.056406554 -3.518352 -0.021483196 116 116 116
-0.19056903 -2.6407559 0.32360423 86 86 86
0.95462334 -5.124392 -0.096334592 194 194 194
0.88771343 -0.27706748 0.12036638 126 126 126
0.87849826 -0.52843571 0.074920997 56 56 56
2.3698175 0.094843566 1.8344117 169 169 169
2.8901575 0.15861638 1.8668485 105 105 105
2.7639735 -0.91244727 1.8929843 185 185 185
1.5527817 -1.774343 1.7415016 156 156 156
1.9692049 -3.331223 2.0787516 205 205 205
2.9964871 -1.6292142 0.70038819 154 154 154
2.9874728 -4.2749214 0.99533796 55 55 55
2.903434 -4.1714644 0.50060219 47 47 47
0.18219532 -3.0202909 0.9900043 199 199 199
0.9249602 -4.1645122 0.54194289 195 195 195
-0.054129634 -1.9141091 0.85687143 138 138 138
1.3684973 -0.7371558 -0.24192216 37 37 37
1.909586 -0.93595493 -0.13176574 117 117 117
1.0861505 -0.3658098 0.10554121 41 41 41
1.2165834 -0.5173102 -0.084883705 53 53 53
1.7980804 -5.5579767 -0.40227342 139 139 139
0.94608879 0.23410271 0.12597881 123 123 123
0.55454457 -0.44406405 0.097833797 125 125 125
4.3708038 -2.8992164 1.5781177 59 59 59
3.0880992 -1.3609589 0.75156254 248 248 248
3.0906873 -1.3364301 0.71548492 122 122 122
2.8964009 -3.601598 1.0064651 56 56 56
0.050563455 -2.1292717 1.0191122 116 116 116
1.6250155 -0.18564211 -0.1545551 126 126 126
1.1019133 -0.11700741 0.069560632 50 50 50
1.4095211 0.042615712 0.067093834 73 73 73
1.0849856 -0.039740272 0.0553758 30 30 30
1.1565412 -0.1756433 0.034543619 139 139 139
1.3226503 -0.34409082 0.058772787 70 70 70
0.54878175 -1.8085561 -0.10606886 34 34 34
2.9131382 0.152015 1.8446381 97 97 97
3.021091 -2.9399788 1.881361 62 62 62
3.487036 -3.3425155 2.0935543 66 66 66
3.8010392 -3.6169708 2.146595 66 66 66
2.3831317 -2.4622943 2.0649889 116 116 116
3.3241866 -3.5609381 2.2825856 151 151 151
3.2818336 -3.2663743 2.2697802 125 125 125
2.4226816 -1.0332564 0.88621259 255 255 255
4.3593154 -2.7225597 0.99935502 163 163 163
0.1311522 -1.8006809 1.1737528 198 198 198
1.116241 -4.0126047 0.88267964 206 206 206
0.25462532 -3.2968483 0.90511161 224 224 224
2.2869871 -1.7449957 -0.61638689 69 69 69
0.31909811 -0.51041698 0.59806585 89 89 89
1.3918266 -1.6993905 -0.33623993 63 63 63
1.349269 -2.5675323 -0.11157025 255 255 255
0.72095913 -1.3453358 0.10007404 166 166 166
-0.15940259 -2.3687851 0.38746989 151 151 151
0.16141109 -2.8201027 0.53567326 200 200 200
1.3230612 -1.1900469 -0.35703325 89 89 89
0.549815 -0.96957457 0.14938073 239 239 239
1.1073147 -1.4514909 -0.30704033 194 194 194
1.2244354 -1.5178345 -0.34969914 144 144 144
0.28474259 -1.4845541 0.1272897 122 122 122
0.63734072 -2.1644001 -0.29890931 129 129 129
0.93717676 -2.26493 -0.49101484 124 124 124
0.22317323 -1.5382117 0.1206774 122 122 122
0.4879182 -1.5460106 0.026160108 137 137 137
0.37913737 -1.6013992 0.060021386 38 38 38
3.2754884 -2.034698 1.8776671 240 240 240
3.1857514 -2.1061509 0.096572205 193 193 193
1.0562341 -3.9480131 1.0761256 235 235 235
0.69898379 -4.6565657 0.44394934 219 219 219
0.67440194 -3.0858426 0.90583128 239 239 239
1.1571138 -4.1190562 0.87454993 206 206 206
0.47574195 -3.8902013 1.0007117 138 138 138
1.5853117 -0.49710968 -0.23641492 89 89 89
0.93355298 -1.1760991 0.071415886 179 179 179
1.2808537 -1.43477 -0.14912225 90 90 90
0.023583403 -2.9724319 0.16601501 151 151 151
-0.065845937 -2.6804061 0.27239633 151 151 151
0.3557851 -3.7865224 0.50243241 200 200 200
3.1035218 -3.0733666 2.0993249 172 172 172
1.9235622 -3.1776912 1.4181303 149 149 149
1.3176349 -4.342968 2.2956805 179 179 179
1.4284096 -4.5289469 0.22233514 222 222 222
0.6443125 -2.8410506 1.0824784 220 220 220
0.092766069 -2.8850532 0.92837584 205 205 205
1.2495753 -4.3288364 0.96000952 215 215 215
1.195133 -0.60407537 -0.053851619 140 140 140
-0.075993612 -1.7532066 0.82811338 177 177 177
0.8732571 -5.2688117 -0.30930448 111 111 111
0.56051683 -1.534964 -0.17872955 206 206 206
0.5498876 -0.46271715 0.15651397 219 219 219
2.2774792 -1.032184 0.81975073 143 143 143
1.9371039 -3.2183721 0.14291213 20 20 20
3.7652824 -2.322722 0.67993194 194 194 194
1.7812625 -4.2009535 0.75667953 182 182 182
1.6817633 -3.9139557 0.78735381 184 184 184
1.7048646 -0.5248341 -0.11878695 115 115 115
0.74100548 -1.0504456 0.038432822 254 254 254
0.87847579 -1.96536 0.05193387 85 85 85
0.68793666 -0.81218278 1.4608696 110 110 110
0.93961692 -2.6066816 1.8437399 167 167 167
0.31510797 -1.8202018 1.6832926 191 191 191
0.31643456 -1.254522 1.6747153 171 171 171
0.69853419 -1.813355 1.190941 204 204 204
-0.28842497 -2.7780197 1.5148579 156 156 156
0.54063517 -3.0527775 1.5089362 194 194 194
2.8573539 -0.00037233764 -0.60610557 37 37 37
