ply
format ascii 1.0
comment PCL generated
element vertex 1088
property float x
property float y
property float z
property uchar red
property uchar green
property uchar blue
element camera 0
property float view_px
property float view_py
property float view_pz
property float x_axisx
property float x_axisy
property float x_axisz
property float y_axisx
property float y_axisy
property float y_axisz
property float z_axisx
property float z_axisy
property float z_axisz
property float focal
property float scalex
property float scaley
property float centerx
property float centery
property int viewportx
property int viewporty
property float k1
property float k2
end_header
4.9090457 3.2967184 0.65053868 103 103 103
0.18642136 1.2079911 0.70893431 255 255 255
2.3834009 1.9901382 0.10646119 230 230 230
3.9789526 0.87681198 0.17620994 107 107 107
0.086768918 1.109027 0.39754298 194 194 194
0.077627942 1.0781597 0.3462598 13 13 13
0.19469954 1.151547 0.44638732 255 255 255
0.16699202 1.3427569 0.44873223 231 231 231
0.67711389 0.89699799 0.27836195 107 107 107
0.2759265 1.2969559 0.53612322 80 80 80
1.7956992 0.31668335 0.071733139 223 223 223
1.9982958 0.79275894 0.048358459 231 231 231
3.019145 0.021109641 -0.14885925 23 23 23
-0.0025679248 1.0453392 0.1191655 198 198 198
-0.041745409 1.6539612 -0.019702652 188 188 188
0.33175474 0.87725055 0.075243317 191 191 191
0.15558624 0.76113695 0.060835619 203 203 203
0.42324844 0.65876901 0.012874266 96 96 96
0.28025088 0.69710052 0.062073309 128 128 128
0.34430867 0.69905758 0.0081962552 90 90 90
0.43150297 0.58300102 0.06596484 136 136 136
-0.021859299 1.2033846 -0.068693615 55 55 55
0.70050919 0.85830414 0.21452715 111 111 111
0.93833542 0.24274661 0.069027983 132 132 132
0.66989285 0.4383477 0.065749429 115 115 115
0.79343659 0.3301549 0.081681751 120 120 120
0.51737124 0.53330857 0.080750309 132 132 132
0.84687424 0.28911477 0.077473186 120 120 120
0.93824214 0.37752017 0.27975002 115 115 115
1.0536605 0.10418256 0.077388011 213 213 213
1.1839768 0.0023470724 0.068700932 210 210 210
1.2963432 -0.1301796 0.055591423 191 191 191
1.1867174 -0.017215041 0.072783135 146 146 146
1.4263483 0.47635001 0.061381418 183 183 183
1.513104 0.29667899 0.034137387 231 231 231
1.2931446 0.19645992 0.063862346 214 214 214
1.4173387 -0.32455754 0.08021941 87 87 87
2.501755 5.9863281 1.3695753 255 255 255
3.747268 1.4013973 0.89070749 135 135 135
3.831264 1.7098408 0.83458084 123 123 123
0.18686482 1.2188286 0.80239207 164 164 164
0.70530373 1.0934014 0.64670783 123 123 123
0.49791718 1.2700858 0.6740604 1 1 1
3.1864839 0.81799179 0.52585173 58 58 58
0.1509667 1.1651525 0.64683729 73 73 73
0.13093443 1.1555911 0.5636549 25 25 25
0.19796351 1.1475852 0.37803993 230 230 230
0.20084806 1.1248778 0.33968428 230 230 230
1.7061033 0.65824366 0.055411179 255 255 255
0.043463957 1.0746988 0.1785589 17 17 17
-0.089459136 1.1979703 -0.02420483 16 16 16
0.46841148 0.55428958 0.067729197 135 135 135
0.64086431 0.4302505 0.057824809 135 135 135
0.89033306 0.29433388 0.067491196 103 103 103
0.5492081 0.50937396 0.063361607 138 138 138
0.85258096 0.24093945 0.087282263 132 132 132
1.6739798 1.534356 -0.60351455 119 119 119
0.77108663 0.35966641 0.04746272 138 138 138
1.1910728 -0.095318973 0.084401809 219 219 219
1.4888756 -0.067964375 0.072888814 20 20 20
1.3002051 -0.17265768 0.06474372 141 141 141
0.99476439 0.15532275 0.045636553 103 103 103
0.94499058 0.19679241 0.082271121 128 128 128
1.3195585 -0.24391419 0.077385508 167 167 167
1.3400092 -0.26241854 0.086979948 203 203 203
0.56942528 1.2606241 0.85241371 49 49 49
0.14852042 1.1818091 0.75828272 216 216 216
0.37814894 1.245337 0.65380216 92 92 92
3.2813869 1.1831163 0.43545547 18 18 18
0.072947361 1.0927306 0.45690629 15 15 15
0.052460555 1.4965827 0.26252994 28 28 28
0.16010821 1.1455781 0.37394735 255 255 255
0.19817419 1.148123 0.27777681 231 231 231
0.13786507 1.2054845 0.60525995 255 255 255
1.1524695 1.2984226 0.27814957 18 18 18
0.73411947 0.82478219 0.42923871 231 231 231
1.9329507 0.17718045 0.14963634 175 175 175
-0.13974391 1.8555681 -0.25031754 192 192 192
-0.069501095 1.1378962 0.11323138 24 24 24
0.36669266 0.60821074 0.042080957 112 112 112
0.33262357 0.66174954 -1.7503535e-05 136 136 136
-0.063543774 1.0263288 -0.019327501 79 79 79
-0.097444542 1.4649967 -0.53978348 86 86 86
0.1385327 0.78054243 0.08719667 101 101 101
1.0199746 -0.095050238 0.19631858 221 221 221
1.0394188 -0.0042434377 0.10351219 55 55 55
1.6474851 0.11761227 0.082978748 146 146 146
1.4975621 0.33427674 0.045893271 229 229 229
1.656844 0.32659388 0.0029103959 255 255 255
1.4218247 0.35464293 0.067144059 231 231 231
0.90512151 0.16936359 0.081558309 124 124 124
2.6106668 5.0606589 1.4416127 73 73 73
2.895396 4.2640004 1.1298251 80 80 80
0.10951017 1.1608212 0.69052541 216 216 216
0.1505221 1.2175378 0.83599627 95 95 95
0.087714143 1.1374158 0.62188619 198 198 198
0.095493965 1.5512316 0.47928831 167 167 167
0.061212923 1.1541029 0.51036835 90 90 90
0.60377097 1.0532994 0.43353513 63 63 63
0.042954929 1.074833 0.32690325 223 223 223
1.6797311 0.21640171 0.083701096 219 219 219
-0.083328359 1.0760365 0.12514998 215 215 215
-0.15852842 1.0994638 -0.013581136 22 22 22
-0.18582913 2.1653154 -0.35139939 213 213 213
-0.12110006 1.0753506 0.074063919 155 155 155
0.17507969 0.7008943 0.084335111 146 146 146
0.15196498 0.84797931 0.082490824 90 90 90
0.72328156 0.42093784 0.057957966 129 129 129
0.90706336 0.38061082 -0.14489923 138 138 138
1.1003048 -0.0028679117 0.095258795 19 19 19
1.0661435 0.044603668 0.082617365 195 195 195
1.4575503 0.27705145 0.02266713 228 228 228
4.6159201 1.413655 1.7745564 132 132 132
0.080495395 1.1558621 0.73070699 203 203 203
0.13775073 1.1950524 0.78855634 224 224 224
0.098769866 1.1674855 0.79079026 229 229 229
3.190793 1.0588473 0.21359272 22 22 22
3.2497296 1.0203538 0.25900885 26 26 26
3.3235366 1.0577217 0.50303417 21 21 21
-0.30211249 2.5701714 -0.50142705 22 22 22
1.4413478 1.6938224 0.1036972 113 113 113
-0.072890639 1.0240697 0.23686935 184 184 184
-0.36735347 2.6627538 -0.62803113 26 26 26
0.34585854 0.52679676 0.073468767 128 128 128
0.19291534 0.64739233 0.040055234 93 93 93
0.36574808 0.86177158 -0.033963781 121 121 121
0.53340936 0.77888745 -0.11250196 125 125 125
0.53921932 0.79130292 0.070614956 106 106 106
0.8363117 0.55362958 0.1181381 66 66 66
0.67464471 0.50539082 0.014094731 140 140 140
1.1246569 0.11792964 0.085960768 16 16 16
-0.10543612 3.9487965 1.0146298 86 86 86
2.5345249 1.1222143 1.1683775 92 92 92
0.059441656 1.1373972 0.672728 22 22 22
0.053383622 1.1775097 0.74355793 20 20 20
0.30797663 1.2402617 0.60026532 60 60 60
0.074007832 1.1704301 0.83559465 111 111 111
2.1938465 1.9491565 0.058175344 255 255 255
-0.13235974 1.0349072 0.15290393 10 10 10
-0.20010865 1.0735254 0.052006442 172 172 172
-0.13661087 1.0379783 0.19783951 19 19 19
0.058417626 0.74038213 0.037737269 94 94 94
-0.042069558 0.8126269 -0.00080440403 86 86 86
0.5416519 0.77951753 -0.020788291 122 122 122
0.11564668 1.1730565 0.74833226 20 20 20
0.059566788 1.168278 0.64146352 255 255 255
0.099569239 1.2120126 0.82573217 125 125 125
3.2310441 1.5456822 -0.21617733 55 55 55
3.3168743 1.7830745 0.3925536 82 82 82
0.12297692 1.191187 0.24289294 196 196 196
0.74102575 0.68573207 0.32712147 105 105 105
1.1148047 0.50439763 0.45074537 228 228 228
-0.24327755 1.0547115 0.044024486 176 176 176
-0.20084022 1.0432377 0.11457386 170 170 170
-0.29410419 1.1220591 -0.071160652 37 37 37
-0.13546635 1.0278814 0.28549936 14 14 14
0.22815526 0.55136687 0.052775104 122 122 122
-0.0097662294 0.74413651 0.030909738 98 98 98
0.077114739 0.66647702 0.075475536 115 115 115
-0.13452359 1.1868652 -0.094189741 61 61 61
-0.11449944 0.77658474 0.0092246737 87 87 87
0.067178227 0.87074649 0.078573786 92 92 92
0.45493737 0.71710503 0.073998116 154 154 154
3.426486 4.8341556 0.96540213 31 31 31
3.0740061 4.4981275 1.5594244 75 75 75
0.3389256 1.7341727 0.89587331 127 127 127
0.27709308 1.2916605 0.63227308 108 108 108
0.27805832 1.3206699 0.60056472 85 85 85
0.73810101 1.8338842 0.58491278 70 70 70
0.67818755 1.2290075 0.73069721 228 228 228
-0.14496239 1.0005603 0.32494006 20 20 20
0.78961033 0.7028535 0.42159984 218 218 218
0.8188501 0.54900736 0.34001729 130 130 130
0.59380525 1.070747 0.23851253 90 90 90
0.58183372 1.166725 0.09732201 112 112 112
0.60794526 1.0821563 0.32613334 55 55 55
-0.19280487 1.0290504 0.25724116 161 161 161
-0.1779867 0.98322326 0.23501755 179 179 179
-0.11069977 0.9748559 0.27745447 191 191 191
0.0088544721 0.66694891 0.018936595 190 190 190
0.040707026 0.60715282 0.062258501 206 206 206
0.086497761 0.62499017 0.048178334 115 115 115
0.20379822 0.59749234 0.060461659 112 112 112
0.18251596 0.52958202 0.091114424 112 112 112
0.74654555 0.85265046 0.015474936 6 6 6
0.20309524 1.2502695 0.63516754 155 155 155
0.30989769 1.2828319 0.7269491 56 56 56
0.97617769 1.3088062 0.3464168 223 223 223
0.768013 1.0584835 0.63093966 136 136 136
0.86935914 0.63587129 0.42808315 221 221 221
0.53679794 1.1369847 0.1913643 110 110 110
1.1755838 0.76326871 0.2772983 255 255 255
0.0038792831 1.2061287 -0.032001238 228 228 228
0.152339 0.90956193 0.10019603 101 101 101
0.50430226 0.5729382 0.072451614 136 136 136
2.9100821 4.3737712 1.3781352 88 88 88
0.11348257 1.2707915 0.55973828 190 190 190
0.61349821 1.122756 0.52826631 100 100 100
1.3715073 1.1956267 -0.034752827 255 255 255
0.48160395 1.2462533 0.30726007 100 100 100
0.59880292 1.255587 0.22545458 59 59 59
2.0561275 0.69809419 0.12897159 156 156 156
0.5557586 0.90205956 0.082668267 70 70 70
0.3974492 0.88520569 0.02281346 103 103 103
0.26219264 1.2459188 0.81040889 97 97 97
0.65252787 1.2054077 0.64358765 91 91 91
0.58765227 1.1308256 0.58775312 77 77 77
0.79003447 1.1950887 0.48854247 138 138 138
3.0254097 1.1764588 0.60576451 190 190 190
0.13539128 1.3094755 0.33302405 21 21 21
0.64875335 0.8840493 0.26046333 82 82 82
0.68086493 0.97762287 0.34142199 97 97 97
0.31837752 0.73925555 -0.013358811 135 135 135
1.2206308 0.28260297 0.18942924 203 203 203
0.78697175 1.354686 0.5210461 112 112 112
1.4275941 0.708866 0.26897141 255 255 255
1.176595 0.44508433 0.22717233 112 112 112
0.37931859 1.2316887 0.65981156 93 93 93
0.24670328 0.98572391 0.10335519 15 15 15
0.21941233 0.80818295 0.089198731 109 109 109
0.2464413 0.88075578 0.099826239 93 93 93
0.54235238 0.8208012 0.00067617535 126 126 126
0.24443893 1.1851413 0.20602353 6 6 6
0.6543237 0.84915882 0.37476769 99 99 99
0.76450473 0.75907773 0.35920772 109 109 109
0.3444531 1.1952482 0.45790091 51 51 51
1.8076648 1.8978316 0.065200351 209 209 209
0.18768103 0.85852104 0.10848179 99 99 99
0.18624547 0.88542527 0.12257942 102 102 102
0.061340883 1.11488 0.79805183 224 224 224
0.33393952 1.296707 0.78816539 81 81 81
0.33373499 1.3481947 0.89250338 57 57 57
0.49716929 1.2170913 0.43644342 67 67 67
0.24622256 1.213572 0.27437052 6 6 6
0.24828833 1.2107162 0.43231794 67 67 67
0.41730312 1.0459962 0.054745454 29 29 29
0.17236696 1.0044652 0.10413232 84 84 84
1.2800823 4.5254612 1.1043518 255 255 255
-0.4748072 0.92661577 0.77734149 23 23 23
0.22984965 1.2260388 0.78947556 69 69 69
0.64937627 1.4215866 0.42383316 64 64 64
0.19060948 1.2326823 0.83882982 111 111 111
3.3746791 3.5630713 0.24474604 89 89 89
0.069202706 1.0535605 0.43540832 26 26 26
0.18820332 1.1440116 0.44735399 255 255 255
0.55331242 1.1091681 0.36849245 51 51 51
0.61809778 0.95817316 0.25848743 55 55 55
0.71243292 0.87251145 0.31731197 92 92 92
0.92389321 0.76131731 0.43091217 208 208 208
0.8825531 1.0729181 0.43130669 255 255 255
0.090643913 0.74183166 0.14280547 95 95 95
0.2039481 0.96571261 0.11646219 72 72 72
0.73670745 0.81190884 0.1777813 61 61 61
0.83186913 0.54998672 0.12229373 69 69 69
0.67082977 4.1209793 1.668654 255 255 255
2.1177423 5.0253277 2.012413 255 255 255
0.45159069 1.256376 0.85298377 68 68 68
-0.46485308 0.74027187 0.64923286 13 13 13
-0.39806068 0.55195314 0.65759677 44 44 44
-0.46992421 0.73532563 0.69803602 33 33 33
-0.52766526 0.76409328 0.54983473 51 51 51
-0.42477578 0.80781484 0.59833622 181 181 181
0.027546959 0.90027177 0.070971332 101 101 101
0.2153732 3.5154233 1.6451234 227 227 227
1.171967 3.8806617 1.8736681 255 255 255
-0.51204604 0.88836956 0.81598639 172 172 172
-0.53109258 0.99243039 0.79138792 255 255 255
-0.047737267 1.0838546 0.93432528 109 109 109
-0.39758798 0.89876121 0.9266867 65 65 65
-0.44838279 0.92578077 0.83330196 113 113 113
-0.52868402 0.90196162 0.84570366 123 123 123
-0.29726779 1.0361651 0.82621324 113 113 113
-0.5026142 0.91273379 0.83792824 134 134 134
-0.50658488 1.2244763 0.3850148 210 210 210
-0.3753148 0.82241213 0.66580909 166 166 166
1.7399795 1.7078508 0.14387269 208 208 208
-0.65665323 0.76699728 0.19178022 147 147 147
-0.61906415 0.77441651 0.2977635 99 99 99
-0.54175323 0.78659242 0.3935115 92 92 92
-0.032762736 0.94998991 0.13138391 18 18 18
0.0032662423 0.741965 0.13695557 123 123 123
1.0356594 0.38399124 0.13671733 82 82 82
-0.1701718 1.027671 0.93882281 99 99 99
-0.55049127 0.88444602 0.83638626 93 93 93
-0.39277321 0.96217948 0.84858739 117 117 117
0.10644107 1.0801985 0.65686089 29 29 29
0.098390386 1.1174104 0.91422898 82 82 82
0.47200099 1.0009212 0.77082604 84 84 84
0.8774246 1.4407768 0.90507686 73 73 73
0.57068819 1.0427791 0.62225789 103 103 103
-0.4811455 1.3333977 0.37383911 93 93 93
0.12477084 1.0428245 0.31427523 140 140 140
0.86650378 0.65587926 0.4775115 228 228 228
0.97237253 0.68835986 0.45396212 226 226 226
0.79356861 0.52524436 0.19446249 90 90 90
0.84425414 0.61888838 0.13352646 73 73 73
-0.61989647 0.85452956 0.76621521 51 51 51
-0.59837067 0.80910099 0.80240268 81 81 81
-0.50445366 0.66753143 0.88784659 111 111 111
-1.2724105 2.7490075 0.95516455 86 86 86
-0.24209444 1.1427683 0.87569869 55 55 55
0.089870915 1.0417899 0.74409306 162 162 162
2.2602439 1.5951214 0.42544886 83 83 83
-0.39825594 0.84718001 0.72311139 51 51 51
-0.73005825 0.79710454 0.16539873 139 139 139
-0.41182795 0.6385029 0.171313 103 103 103
0.27690217 0.6980179 0.1330017 117 117 117
0.64988816 0.39775664 0.39165643 74 74 74
-2.7307169 4.937705 1.2823464 255 255 255
-2.2629647 4.3500009 1.2254297 111 111 111
2.8094394 4.2315245 1.4700694 101 101 101
-3.0179157 4.542398 0.9988237 128 128 128
-0.70217329 0.93986392 0.94624501 128 128 128
-1.4077036 2.34056 0.57546985 21 21 21
-0.44679466 0.8721171 0.81834823 255 255 255
-0.29673961 0.95516539 0.91802174 54 54 54
-0.62602264 0.86386371 0.94299269 83 83 83
-0.38806981 0.92110503 0.95178372 189 189 189
-0.69862336 0.95444977 0.90430266 52 52 52
-0.32808998 0.93673283 0.90690911 72 72 72
-0.13433376 1.0148225 0.74589944 24 24 24
-0.092868775 1.0336744 0.70052367 175 175 175
-0.087319508 1.0469387 0.75860608 59 59 59
-0.17349997 1.0114043 0.78297728 31 31 31
-0.14359008 1.0032417 0.68437409 56 56 56
-0.064077593 1.0385566 0.68751103 255 255 255
-0.19374433 1.0170981 0.82129771 120 120 120
0.027321542 1.1413121 0.82437539 114 114 114
0.51972681 1.1166499 0.71579063 83 83 83
-0.34620836 1.0111514 0.59850639 74 74 74
-0.66368413 0.86565936 0.56626248 15 15 15
-0.65596652 0.85166615 0.72681135 34 34 34
-0.6737327 0.88461369 0.66216385 80 80 80
-0.25225207 1.3128107 0.23371251 20 20 20
-0.027108936 1.1313341 0.60309124 208 208 208
-0.11758175 1.0079211 0.59173989 28 28 28
-0.18737689 1.1591822 0.31946471 209 209 209
-0.058949806 1.7131832 0.43081585 178 178 178
-0.12468784 1.405825 0.35623255 158 158 158
-0.083053619 1.2420981 0.38456604 191 191 191
-0.32958427 0.94635284 0.46504876 30 30 30
-0.075787254 0.98966753 0.5506624 28 28 28
-0.024377085 1.0054497 0.36022583 28 28 28
-0.13885075 0.95252699 0.3504971 20 20 20
-0.0026278612 1.0197635 0.56540459 255 255 255
-0.025198087 0.99473149 0.326377 27 27 27
-0.073699839 1.9503247 -0.044017535 86 86 86
0.093716279 1.0494661 0.29894778 153 153 153
0.096525542 1.2484636 0.4398661 169 169 169
0.55843198 1.0803767 0.30180398 83 83 83
0.72417593 0.77679121 0.37024012 111 111 111
0.73596025 1.0125046 0.43030736 222 222 222
0.78556639 0.68058836 0.39844039 111 111 111
2.1321127 2.3010435 0.0979174 150 150 150
-0.477768 0.98425496 0.26311454 155 155 155
-0.6382935 1.1684997 0.10138973 14 14 14
-0.58486354 0.83032 0.46192881 95 95 95
-0.46897694 0.9318307 0.38377711 224 224 224
-0.65562427 0.96224499 0.15963466 44 44 44
-1.1852247 1.2764121 0.088542484 104 104 104
-0.52155399 0.86244726 0.1324224 34 34 34
-0.10789411 1.4856344 0.11417069 20 20 20
-0.1623868 0.90975368 0.20764609 15 15 15
-0.29934886 0.90725392 0.2477019 18 18 18
-0.20344013 0.89230728 0.19905247 147 147 147
-0.11209337 1.0538572 0.18787856 20 20 20
-0.21457817 0.97483802 0.20828344 28 28 28
-0.39963412 0.95923012 0.31447765 20 20 20
-0.24029431 0.91784173 0.22309013 20 20 20
-0.48592716 1.7907087 -0.2375593 20 20 20
-0.45490143 1.1072018 0.16035445 15 15 15
-0.29567081 1.1679534 0.090792142 141 141 141
-0.037750334 0.99332017 0.26100323 221 221 221
0.061468855 1.0043101 0.2053317 216 216 216
-0.55220056 0.74857938 0.21276517 89 89 89
0.69440079 0.74814796 0.11750349 50 50 50
0.79926312 0.65517932 0.36323604 111 111 111
0.80049723 0.60498768 0.077569328 6 6 6
0.8500067 0.61531603 0.26362512 128 128 128
0.86938792 0.561728 0.43762437 180 180 180
-2.6806245 4.8328314 1.4661052 255 255 255
-2.3044553 5.0945024 2.1629434 230 230 230
-3.3365257 4.4147778 1.3049583 45 45 45
-1.5761681 4.8149486 1.1898282 102 102 102
-2.4841728 4.8903708 2.2014794 102 102 102
-2.9622211 4.1957865 1.3367518 112 112 112
-0.0020293612 3.6406181 1.3195891 29 29 29
0.035228986 3.8759186 1.7486397 51 51 51
0.036412783 3.7894461 1.5737653 70 70 70
-0.097637698 3.678349 1.4944708 130 130 130
0.0061504114 5.0402832 1.3621672 134 134 134
0.17519055 3.6095245 1.2488185 102 102 102
-0.14629923 3.4458151 1.0753152 192 192 192
-0.013378204 3.7384832 1.4547858 178 178 178
3.4595461 3.7832592 1.2742567 68 68 68
-0.5191204 0.9005813 0.76373506 11 11 11
-0.29978725 0.86075479 0.79321575 231 231 231
-0.5095681 0.91566211 0.77726364 229 229 229
-3.2728217 4.4548287 1.1936492 7 7 7
-3.1601021 4.5913463 0.68481576 8 8 8
-3.0972147 4.4213972 0.51076734 42 42 42
-1.4700387 3.8699472 0.94791365 119 119 119
-0.58772808 0.88836956 0.82025748 112 112 112
-3.2086349 4.5711837 0.35468748 32 32 32
-0.57901347 0.89145058 0.91528118 70 70 70
-0.59733546 0.88773775 0.77988786 81 81 81
-0.48481122 1.0190213 0.89349818 37 37 37
-0.21344008 0.97708189 0.74601889 213 213 213
0.027743947 1.1456053 0.77178824 47 47 47
0.018928735 1.0923433 0.68261141 32 32 32
-0.21823193 1.062404 0.93331331 73 73 73
-0.17126341 2.3933556 0.95808423 181 181 181
0.015411645 1.0914887 0.90040797 90 90 90
-0.057126615 1.1036539 0.90437031 93 93 93
-0.23071924 1.0004346 0.83066159 115 115 115
0.009050549 1.2477558 0.8702178 60 60 60
0.25486597 1.1983417 0.71641845 68 68 68
3.3855944 4.4269972 0.36867705 45 45 45
-0.33151916 0.93941462 0.7175408 223 223 223
-0.39755541 0.92033535 0.7262888 212 212 212
-0.43931264 0.79104942 0.4872072 29 29 29
-0.36098579 0.96037966 0.54705739 31 31 31
-0.74913156 0.95646894 0.45061579 136 136 136
-0.58062696 0.8662498 0.7470535 134 134 134
-0.52013743 0.89741427 0.66204417 8 8 8
-0.55116373 0.8527385 0.54524559 84 84 84
-0.46445808 0.8593998 0.5951401 231 231 231
-0.44040909 0.82406086 0.73529917 255 255 255
-0.47119036 0.89609635 0.4679518 231 231 231
-0.4316535 1.2967669 0.5195272 232 232 232
-0.01406148 1.0245993 0.59916258 214 214 214
-0.13313846 1.1289384 0.60022807 211 211 211
0.055603307 1.5035095 0.49160174 203 203 203
0.026195768 1.0150769 0.31065854 200 200 200
0.0099905375 1.0428522 0.48300079 201 201 201
-0.063779667 1.4283646 0.21696706 201 201 201
0.029092675 1.5094286 0.34166303 60 60 60
0.11070788 1.0706563 0.41816047 182 182 182
0.024745481 1.4975488 0.1861216 205 205 205
0.031393588 1.1154464 0.34181091 181 181 181
0.07864847 1.0221558 0.41480812 180 180 180
0.034388263 1.0709955 0.41561046 28 28 28
0.025573878 1.1133108 0.63462859 31 31 31
-0.031726461 1.4083203 0.26811841 37 37 37
-0.14482374 1.0370432 0.4287844 29 29 29
-0.2735962 1.3057706 0.40893164 21 21 21
0.32352328 1.2291256 0.5062868 87 87 87
0.36436427 1.2208382 0.56090134 119 119 119
0.34158033 1.3845885 0.36478814 76 76 76
0.28148919 1.2027246 0.24560978 51 51 51
0.24533224 1.1687825 0.34576014 53 53 53
1.1195812 0.95031965 0.38376835 45 45 45
-0.44391391 0.94536227 0.34153363 205 205 205
-0.43504879 0.92722952 0.20233972 195 195 195
-0.43809766 0.97699785 0.083985053 178 178 178
-0.48710278 0.94934231 0.12358775 31 31 31
-0.46399334 0.87525392 0.061317462 24 24 24
-0.41839841 0.80882674 0.13727446 24 24 24
-0.44288373 0.70962346 0.16579355 174 174 174
-0.60585326 0.72344071 0.20209642 81 81 81
-0.60901695 0.73301655 0.15625675 70 70 70
-0.5310812 0.9386006 0.13520963 10 10 10
-0.56450629 0.64656574 0.17473127 115 115 115
-0.91816652 0.90801775 0.1661122 53 53 53
-0.62605768 0.69426835 0.17149009 93 93 93
-1.0695519 1.0532093 0.14280118 76 76 76
-0.40074459 0.72426111 0.1549042 102 102 102
-0.6946336 0.68190104 0.1794485 62 62 62
-0.59357667 0.79890007 0.34677789 70 70 70
-0.66618186 0.81281996 0.22742946 90 90 90
-0.60727221 0.94609636 0.20004787 141 141 141
-0.67670053 0.72779238 0.16887601 90 90 90
-0.60606498 0.93728173 0.15811945 76 76 76
-1.153506 1.0540898 0.16331835 106 106 106
-0.84365839 0.70652813 0.16070934 112 112 112
-0.54215145 0.70176035 0.1236194 99 99 99
-1.2540795 1.2361248 0.12858345 115 115 115
-0.91808623 0.73120546 0.15253897 93 93 93
-1.1126471 0.85099024 0.10555037 81 81 81
-0.98658526 0.84121221 0.15507938 90 90 90
-1.0524007 1.1256475 0.12091317 93 93 93
-0.76984179 0.78942364 0.16438653 81 81 81
-0.54220557 0.70174921 0.17497577 60 60 60
-0.96170008 0.82894844 0.10067495 78 78 78
-0.84510243 0.86881852 0.17061807 84 84 84
-0.10332898 0.93904984 0.19760861 183 183 183
-0.30245697 0.84952962 0.21117009 173 173 173
-0.35760972 0.80462605 0.2278908 172 172 172
-0.30855867 0.8917563 0.13202609 172 172 172
0.031806242 1.0229373 0.26102826 173 173 173
0.001307907 1.0262802 0.12706937 184 184 184
-0.0073414529 0.99754363 0.26503208 177 177 177
-0.20116283 0.87103558 0.17500044 174 174 174
-0.070316918 0.94562864 0.28338549 190 190 190
-0.062116247 0.9482463 0.17550375 170 170 170
0.091237098 0.99232787 0.18042763 174 174 174
0.022880564 0.9974066 0.20441557 188 188 188
-0.072953857 0.95924211 0.32261774 190 190 190
-0.32625678 0.79271537 0.15290673 28 28 28
0.16706558 1.0721766 0.23760994 26 26 26
0.065962501 1.0023243 0.11981007 32 32 32
-0.11154498 0.93340224 0.14426388 24 24 24
-0.13512248 0.87631202 0.15194012 24 24 24
0.06789203 1.0362271 0.23430385 25 25 25
-0.34944838 0.86524862 0.21292503 31 31 31
-0.34931388 0.99376398 0.29744938 19 19 19
-0.34906396 0.84877151 0.34647247 51 51 51
-0.0088556232 0.95005798 0.21943481 175 175 175
0.63650173 0.79897642 0.074183546 99 99 99
0.33762524 0.81964952 0.11782195 78 78 78
0.52962744 1.2133669 0.091371916 96 96 96
0.666843 0.84910089 0.29914507 99 99 99
0.25379527 1.1855689 0.10911056 10 10 10
0.82851487 0.54421687 0.42147043 58 58 58
0.84542859 0.58989209 0.43228051 218 218 218
0.9309594 0.527942 0.42361709 192 192 192
0.75913912 0.72620535 0.30391154 112 112 112
0.86468154 0.50179803 0.39164492 87 87 87
-1.643497 4.7315974 1.1357785 201 201 201
-0.056363031 3.3722668 1.0555335 255 255 255
-0.71557766 1.0156338 0.85858899 16 16 16
-0.45181164 1.0058805 0.9522354 174 174 174
-0.11795738 1.1061535 0.91928983 54 54 54
-0.12417448 1.0586737 0.89886367 85 85 85
0.3831751 1.2482555 0.73481196 48 48 48
-0.509435 1.3504617 0.27033201 209 209 209
-1.2067727 1.5166963 0.13443823 42 42 42
-0.5241639 0.94461155 0.69355291 255 255 255
-0.41602531 0.83827198 0.67643368 255 255 255
-0.48440015 0.89067084 0.67746586 255 255 255
-0.67318237 0.88857687 0.60673285 71 71 71
-0.59369993 0.8570177 0.53527164 104 104 104
-0.73974532 0.93573713 0.4203116 128 128 128
-0.067184016 1.0270729 0.66098452 36 36 36
0.10276189 1.1237813 0.58890241 201 201 201
0.22516897 1.2175504 0.51029861 82 82 82
0.40477473 1.2530173 0.2299663 34 34 34
0.43467137 1.2665433 0.50573188 37 37 37
0.40661258 1.2447213 0.27294418 28 28 28
0.4989742 1.2605913 0.55162364 16 16 16
0.78320605 0.99755406 0.42493334 197 197 197
-0.69559509 0.86933768 0.40296087 97 97 97
-1.0253797 1.0375031 0.18750502 77 77 77
-0.63564527 0.65000552 0.18254568 71 71 71
-0.45786771 0.72785193 0.20236529 8 8 8
-0.98316401 0.68535423 0.12102481 101 101 101
-1.1717006 1.337656 0.10769459 120 120 120
-0.59097779 0.83086109 0.19795586 59 59 59
-0.77616441 0.68546146 0.24269022 97 97 97
-0.73643798 0.6657564 0.17417254 91 91 91
-1.0416188 0.96814024 0.11770298 97 97 97
0.11374086 1.0406359 0.26819447 149 149 149
0.82365161 0.46994349 0.36735943 91 91 91
-1.9089193 4.658102 1.7479243 255 255 255
-0.1647508 3.4111185 1.1507162 255 255 255
0.073685415 3.6362965 1.253768 148 148 148
-0.42550504 0.89352196 0.93382001 127 127 127
0.50174642 1.3192502 0.75618249 92 92 92
0.57854599 1.1300253 0.87211376 67 67 67
1.0280892 1.623454 0.91815382 115 115 115
3.1630929 2.7749112 0.84941906 132 132 132
-0.46520519 0.82215542 0.67249179 255 255 255
-0.57199788 0.89268804 0.63268656 92 92 92
0.3059859 1.2265469 0.49484947 82 82 82
0.56923908 1.0746033 0.34612849 53 53 53
0.33025199 1.1987166 0.57114542 134 134 134
0.60804051 0.86236036 0.44624022 118 118 118
0.43458965 1.3143179 0.27680436 25 25 25
0.3187336 1.2132508 0.36696836 45 45 45
0.53624833 0.89512527 0.63412941 121 121 121
0.8612954 0.83000189 0.41543868 221 221 221
-0.40739575 0.77377605 0.36375901 26 26 26
-0.77404499 0.73028445 0.1733339 98 98 98
-0.9901768 0.71516663 0.13682623 105 105 105
-1.3509699 1.274684 0.12742682 115 115 115
-0.46894735 0.74465728 0.31265101 27 27 27
-0.15711266 0.90499091 0.34535912 29 29 29
-0.055443306 0.95341676 0.22288485 26 26 26
-0.12509756 0.96608818 0.19250752 85 85 85
-0.15007398 0.93727833 0.25203606 29 29 29
0.15961903 0.89187747 0.078508459 132 132 132
0.45699492 1.0463158 0.091068409 67 67 67
0.13931122 0.67580938 0.11571195 130 130 130
-2.9201071 4.6622949 1.4753721 191 191 191
1.4759969 5.0615058 1.9873229 255 255 255
-0.71112651 0.95904231 0.76322782 136 136 136
-0.12315173 1.026473 0.71017528 210 210 210
-0.08435154 1.0727338 0.81898904 106 106 106
-0.17404725 1.0525554 0.81486118 106 106 106
0.42664343 1.3468479 0.89566493 80 80 80
0.80724734 1.1848055 0.88315457 55 55 55
-0.41913092 0.83564413 0.73984319 196 196 196
-0.38461915 0.85256547 0.62620211 45 45 45
-0.6497997 0.83943731 0.51793987 53 53 53
-0.60963702 0.85187501 0.73348129 122 122 122
-0.61228114 0.85974997 0.64894903 80 80 80
-0.48477033 0.80422652 0.51007873 9 9 9
-0.54690206 0.86912507 0.56598645 128 128 128
-0.57892597 0.80959171 0.64098853 75 75 75
-1.6369312 1.7456417 0.13459517 128 128 128
-0.64727014 0.8541649 0.69881082 60 60 60
0.11439187 1.0308963 0.40172735 195 195 195
-0.18258555 0.89946431 0.41648421 49 49 49
0.59853446 1.0157129 0.34811583 58 58 58
0.62675935 0.99559247 0.52681178 126 126 126
0.61068475 1.1152377 0.56803536 96 96 96
0.8171593 0.83596325 0.43463227 151 151 151
1.0472559 0.65698963 0.4322429 255 255 255
-1.0721598 0.95352417 0.13843937 92 92 92
-0.78618181 0.67151743 0.12831528 116 116 116
-0.86443275 0.85962915 0.094647609 96 96 96
-0.8958115 0.82556081 0.1656387 92 92 92
-0.3720594 0.83643126 0.32010248 196 196 196
0.052108284 1.0287614 0.12524451 20 20 20
0.57808852 0.63332862 0.10764351 102 102 102
0.78327131 0.7117933 0.11938842 75 75 75
0.78190684 0.5572921 0.35448083 126 126 126
0.82312989 0.49031809 0.10070368 15 15 15
0.85071081 0.4156459 0.31885669 92 92 92
3.4364789 4.2405105 1.0697803 58 58 58
-0.58334196 0.82249135 0.9390009 113 113 113
-0.055855513 1.0962975 0.74715489 73 73 73
-0.24426006 1.0478314 0.93045539 145 145 145
-0.21104309 1.0161302 0.90809339 49 49 49
0.53216493 1.1386991 0.86542612 170 170 170
0.19468015 1.2177376 0.75938523 32 32 32
-0.42067412 0.85152417 0.59999466 209 209 209
-0.5324896 1.2872277 0.19994904 175 175 175
-0.62452829 0.75386649 0.58207589 116 116 116
-0.48036882 0.82289851 0.74729764 255 255 255
-0.5393821 0.83172482 0.47002283 89 89 89
0.012260989 1.061854 0.51115018 210 210 210
-0.24148825 0.92349446 0.65877742 38 38 38
0.21137424 1.1133798 0.41109189 22 22 22
0.68584496 0.94045496 0.4351764 173 173 173
0.56282401 1.1187016 0.24512227 51 51 51
0.50178605 1.2375381 0.43040642 103 103 103
0.27923808 1.1777072 0.54994792 120 120 120
0.28413665 1.1936512 0.35670868 60 60 60
0.78844994 0.87200809 0.42553505 222 222 222
2.1354229 1.8628514 0.086557947 213 213 213
-1.0446579 0.83567274 0.14211358 103 103 103
-0.61538929 0.74612957 0.34926227 65 65 65
-0.78833801 0.90239906 0.15224178 51 51 51
-0.371205 0.81892085 0.28517404 206 206 206
0.31608841 0.63335502 0.14386089 129 129 129
3.2407029 4.5774288 1.1879443 42 42 42
-0.57879138 0.88487035 0.85298181 150 150 150
-0.38367724 1.0899734 0.90447342 81 81 81
0.60579461 1.0178788 0.7722308 255 255 255
0.2950559 1.2858937 0.89939463 116 116 116
-1.8057097 2.2635009 0.11844947 139 139 139
-0.20672677 1.0064428 0.62747186 222 222 222
0.2871272 1.2358266 0.16007473 76 76 76
0.54522008 1.356235 0.46801105 23 23 23
0.45429456 1.1091908 0.20720609 93 93 93
-0.80929327 0.84380889 0.155899 100 100 100
-0.73041546 0.71835244 0.17874099 113 113 113
-1.1832033 1.0991744 0.10323652 113 113 113
-0.16605538 0.91840816 0.15251954 179 179 179
0.57532996 0.94288993 0.10947283 39 39 39
0.49685353 0.65166557 0.11233243 129 129 129
0.61623824 0.89423817 0.2672331 90 90 90
0.22153716 0.93634754 0.093982838 100 100 100
-1.7675169 4.7627459 1.7485062 255 255 255
2.0949876 4.9491444 2.0958121 228 228 228
3.5704005 3.8870966 1.548309 68 68 68
0.1497173 1.1394207 0.89962977 93 93 93
0.25021172 1.1903601 0.64302933 126 126 126
-0.56692797 0.83653742 0.57693315 135 135 135
-1.141175 1.4591241 0.094533466 132 132 132
-1.3987634 1.4292084 0.15549423 135 135 135
-0.10356036 1.0093706 0.52161396 215 215 215
0.11252038 1.0958608 0.47850528 213 213 213
0.3153601 1.2295732 0.44679263 78 78 78
-0.57268167 0.77524447 0.31637064 120 120 120
0.64446074 1.1775583 0.019295176 129 129 129
0.42006886 0.74001616 0.075536452 129 129 129
0.25552529 1.0159135 0.13047911 71 71 71
0.49047658 0.62589085 0.10087504 140 140 140
0.69614041 0.51527822 0.098454319 116 116 116
0.58248812 0.5325681 0.11283525 126 126 126
0.90027297 0.58730644 -0.036010843 68 68 68
0.81665927 0.44910914 0.36733249 113 113 113
-0.43291226 0.93888539 0.90394515 66 66 66
-0.4077076 0.9477514 0.88668138 54 54 54
-2.4973471 3.5772347 0.11790814 117 117 117
-0.17975929 0.97911859 0.68962383 37 37 37
-0.50946373 0.89427984 0.61633468 232 232 232
-1.8428596 2.3090136 0.31972453 113 113 113
-0.65070069 0.76376647 0.37390682 84 84 84
-0.50258315 0.68963295 0.17568697 79 79 79
-0.26806387 0.85391819 0.17102499 196 196 196
0.12120485 0.60825068 0.14449413 103 103 103
0.16907465 0.62736726 0.11911192 123 123 123
0.43785313 0.55151474 0.12762691 146 146 146
0.31444356 0.59389442 0.1185989 138 138 138
0.82811892 0.5250982 0.21206976 149 149 149
0.81215721 0.54174137 0.23395403 87 87 87
0.88236153 0.43933821 0.42252538 103 103 103
-0.5427283 0.88011843 0.81220299 73 73 73
0.051732332 1.0657421 0.65314388 28 28 28
-0.54476529 1.3316486 0.38758704 231 231 231
-0.11995319 1.1864334 0.40188232 187 187 187
0.71976846 0.84772867 0.37422052 103 103 103
-0.89460671 1.126662 0.12013146 71 71 71
-0.23828983 0.80344272 0.20190795 42 42 42
0.094864115 0.62568295 0.12949194 126 126 126
0.73775846 0.60548168 0.28849849 163 163 163
-0.50278008 1.3519851 0.23160549 227 227 227
-0.1417338 1.6275485 0.33010897 69 69 69
0.24481826 1.2558647 0.39248922 62 62 62
0.32272202 1.2058105 0.18691422 66 66 66
-0.60829532 0.58879536 0.19117381 120 120 120
-0.67246646 0.59610283 0.18370201 127 127 127
-0.53414106 0.80556273 0.20015807 93 93 93
0.49726903 0.51653075 0.13973118 111 111 111
0.19506797 0.61655325 0.12125643 127 127 127
0.257525 0.59329438 0.13516136 136 136 136
3.4711211 3.7579114 1.1421419 76 76 76
-0.43732539 0.81679118 0.77553707 222 222 222
-0.37883428 0.79712951 0.6207397 120 120 120
-0.51562941 0.88192177 0.55353379 43 43 43
-0.58361232 0.83365268 0.41322526 93 93 93
-0.89959705 1.64061 -0.17317794 69 69 69
-0.53923112 0.51621401 0.2502639 120 120 120
0.33884397 0.57564831 0.13280626 136 136 136
0.31163213 0.45214564 0.24054267 141 141 141
0.4992193 0.80930465 0.12446573 87 87 87
0.45618582 0.52506202 0.15638836 143 143 143
0.68962032 0.44002968 0.13669546 97 97 97
-3.3533056 4.8363514 1.1489402 70 70 70
-1.4018975 1.6305264 -0.02645872 109 109 109
-0.044334598 0.97376448 0.59526265 34 34 34
0.56947994 0.87812322 0.37353542 85 85 85
-0.53546602 0.65701902 0.14613678 83 83 83
-0.438375 0.59414577 0.18088187 143 143 143
-0.53781205 0.56343019 0.19578953 116 116 116
-0.99366057 0.81088704 0.14296187 105 105 105
-0.31024387 0.80166739 0.29319605 65 65 65
-0.24926706 1.0377173 0.95270681 199 199 199
-0.57964128 0.87704974 0.71090823 70 70 70
-3.3514996 4.5898094 0.49940744 33 33 33
0.038549468 1.0738744 0.54697984 49 49 49
0.020701313 1.0317464 0.58591884 43 43 43
0.57743245 0.98653764 0.20660998 40 40 40
-0.82063425 0.58816469 0.13240118 110 110 110
-0.87022156 0.61462307 0.10879662 106 106 106
-0.79035902 0.70695788 0.15734561 116 116 116
0.27601546 0.56327909 0.12888379 120 120 120
0.475871 0.45639139 0.20170297 139 139 139
0.21283062 0.55967283 0.14269753 139 139 139
0.64209825 0.43841735 0.14044721 103 103 103
0.61124152 0.46432072 0.13207854 133 133 133
0.80696875 0.45505843 0.077988349 86 86 86
0.54887301 0.47408745 0.14453067 142 142 142
-0.48965624 1.6037866 0.98006612 180 180 180
-0.89101505 1.427261 0.98025054 185 185 185
-2.5293686 4.5601864 1.6379038 217 217 217
-2.4963782 4.8078184 2.1372046 124 124 124
-0.091210119 0.95765018 0.61997396 210 210 210
-0.63949841 0.79700422 0.4344652 42 42 42
-1.2299056 1.3654996 0.17662127 45 45 45
-0.14090243 0.89662814 0.60889125 26 26 26
0.35141513 1.1396168 0.48817804 42 42 42
0.72501177 1.2769336 0.44479719 96 96 96
-0.41955489 0.78493863 0.27987948 217 217 217
-0.50562572 1.0262314 0.20394661 211 211 211
-0.38904625 0.55759275 0.18114044 148 148 148
-0.94453377 0.62829953 0.060407121 103 103 103
-0.53923506 0.53701496 0.19333465 107 107 107
-0.75777858 0.54732716 0.16635753 120 120 120
-0.43607536 0.53882647 0.19866808 117 117 117
-0.327939 0.76982433 0.12943591 87 87 87
-0.30150139 0.77863491 0.12812252 148 148 148
-0.085656457 0.61233741 0.15028329 117 117 117
-0.087831892 0.77687055 0.11864432 114 114 114
-0.25034857 0.63543254 0.1527033 110 110 110
0.092036329 0.5626539 0.14932932 117 117 117
0.25523213 0.67294937 0.13273551 117 117 117
0.4478769 0.52875638 0.10051247 146 146 146
-0.36412275 0.89314318 0.74625182 255 255 255
-0.42186716 0.93489701 0.76373678 255 255 255
3.8726699 3.5800438 0.7706508 141 141 141
-0.38714722 0.78003544 0.33194503 66 66 66
-0.51047403 0.55330288 0.17063536 69 69 69
-0.73390418 0.55150867 0.14586236 131 131 131
0.029206879 0.66528791 0.14358629 120 120 120
-0.051218361 0.6105004 0.13925405 87 87 87
-0.21893227 0.755252 0.12524547 134 134 134
-0.026360508 0.61919451 0.14144529 127 127 127
-0.22239064 0.5847894 0.15845706 106 106 106
-0.13370892 0.65328699 0.15394504 124 124 124
-0.019970763 0.7866506 0.10507824 99 99 99
-0.042528789 0.5564509 0.15576042 154 154 154
0.016130565 0.60994828 0.15243097 120 120 120
-0.0860155 0.66316497 0.15401591 113 113 113
-0.3438223 0.71208483 0.18053938 96 96 96
0.26937792 0.38674298 0.27449283 131 131 131
0.67318988 0.37016416 0.15899284 127 127 127
0.61128306 0.50315738 0.054646153 144 144 144
-2.6352952 4.5424504 1.0131042 255 255 255
-2.7071857 4.4452405 1.0163999 220 220 220
0.19205566 3.321595 1.301349 233 233 233
0.37057719 1.2926342 0.89830953 124 124 124
1.4350984 4.8142891 1.8789083 233 233 233
-0.64855397 0.85402471 0.82092732 135 135 135
0.45418379 1.1347791 0.73436058 52 52 52
0.3021903 1.2238107 0.71190459 61 61 61
3.6751328 2.4011123 0.070253931 76 76 76
0.038022287 1.0080358 0.33328936 25 25 25
0.62868255 0.76460987 0.2821565 114 114 114
0.60841954 0.9874509 0.23820598 90 90 90
-0.47549576 0.59702486 0.16890253 25 25 25
-1.0067749 0.717614 0.068234466 110 110 110
-0.53170353 0.7368781 0.24961723 107 107 107
-0.86761594 0.78352511 0.13916047 107 107 107
-0.47216326 0.56277215 0.16587396 93 93 93
0.010764234 0.56605625 0.13224812 193 193 193
-0.17109996 0.58403605 0.14280249 121 121 121
-0.078779213 0.53776073 0.17577751 150 150 150
-0.2912285 0.69192982 0.1256422 121 121 121
-0.22188342 0.71236253 0.12236484 96 96 96
-0.1624507 0.63921618 0.1526707 150 150 150
-0.1955484 0.68658853 0.12688781 155 155 155
-0.2478423 0.56626606 0.14792497 103 103 103
-0.057153177 0.75747216 0.11919203 147 147 147
0.16437215 0.57138836 0.10702904 135 135 135
0.093041904 0.43582359 0.25014171 144 144 144
0.13722128 0.55930734 0.1450996 121 121 121
0.24998336 0.54018223 0.10533311 131 131 131
0.36160135 0.58648419 0.076126359 144 144 144
1.66918 0.70092094 -0.53874409 161 161 161
0.75254476 0.50734282 -0.016571978 159 159 159
0.6921798 0.72531515 0.25394985 69 69 69
-0.4729442 0.89257443 0.942693 110 110 110
-0.049184147 1.0528773 0.75766128 34 34 34
0.021324556 1.1308715 0.74393797 36 36 36
-0.47869831 0.78747702 0.61003721 8 8 8
-1.6320872 1.9136665 0.18841906 131 131 131
0.54080385 1.1040745 0.39125732 81 81 81
0.54155147 1.1241429 0.28963116 92 92 92
-0.43706843 0.54773366 0.15580459 153 153 153
-0.4037419 0.67822248 0.12550999 155 155 155
-0.63971573 0.53481531 0.15167905 131 131 131
-0.66995353 0.53512633 0.18533428 103 103 103
-0.58901972 0.77415663 0.15097781 66 66 66
0.037865471 0.56343418 0.11212172 207 207 207
-0.012331311 0.84534609 0.10758861 117 117 117
-0.26572904 0.73427242 0.13264938 121 121 121
-0.29289436 0.54107153 0.16448529 110 110 110
-0.26657784 0.67184377 0.14733405 106 106 106
-0.36236504 0.57586122 0.14292832 114 114 114
-0.36611238 0.66829562 0.12057259 138 138 138
-0.32886899 0.56822419 0.13657506 114 114 114
-0.0020621296 0.6918332 0.14387543 114 114 114
0.30281079 0.51904422 0.26645151 131 131 131
0.30501527 0.55512124 0.079641305 138 138 138
0.55940324 0.51437062 0.04108705 147 147 147
0.35008171 0.44025397 0.18550546 157 157 157
0.4033134 0.47836831 0.24300714 153 153 153
0.67022336 0.4780395 0.023212632 138 138 138
-1.5997225 4.3147206 1.531397 234 234 234
-1.8513176 4.2719831 0.98557526 232 232 232
-2.5907085 4.3865232 1.0872346 255 255 255
0.14411281 1.2043315 0.9261539 153 153 153
0.68858832 4.1954598 1.5240142 233 233 233
-0.27545229 1.0076995 0.90273523 63 63 63
0.09872552 1.1617687 0.89404368 60 60 60
-0.56146169 0.87840992 0.63618451 91 91 91
-0.69359493 0.92050767 0.63039058 124 124 124
0.055236492 1.1378369 0.74987775 32 32 32
0.4766534 1.0385149 0.79460543 38 38 38
0.57268161 1.0485622 0.7755459 47 47 47
3.620301 2.8567176 0.2957271 120 120 120
-1.1561664 1.635932 0.094990633 65 65 65
-0.47899047 0.83786833 0.54601145 234 234 234
-0.032779768 1.6957275 0.23876096 220 220 220
-0.30116126 1.430917 0.370303 30 30 30
0.32728717 1.2612288 0.20360155 42 42 42
0.26847407 0.92193198 0.23464377 53 53 53
-0.94396728 0.80885011 0.1487266 120 120 120
-0.41794077 0.56838638 0.13097747 150 150 150
-0.91943067 0.84045696 0.12697728 91 91 91
-0.94618106 0.65198326 -0.003603915 88 88 88
-0.36552995 0.70892817 0.1177062 150 150 150
-0.38923874 0.69643557 0.148151 98 98 98
-0.2303253 0.57356179 0.12380662 113 113 113
-0.12954967 0.56737006 0.11536827 127 127 127
-0.110462 0.5288921 0.16957952 144 144 144
-0.016313525 0.58215266 0.10083833 110 110 110
0.055451069 0.95526493 0.1070924 110 110 110
-0.16727574 0.56778663 0.11844542 110 110 110
-0.34054932 0.60529864 0.14682843 141 141 141
0.11296713 0.56366968 0.095190607 138 138 138
0.079486474 0.59278071 0.093207501 134 134 134
0.44057566 0.46824127 0.10442945 159 159 159
0.21514693 0.56185174 0.086599909 147 147 147
2.3125105 3.9311333 1.6896156 88 88 88
-0.65956545 0.88292497 0.76451141 38 38 38
-0.62006259 0.87092793 0.85660666 19 19 19
-0.49474737 0.9905917 0.67783803 255 255 255
0.47484306 1.1150585 0.78928548 23 23 23
3.1562724 3.6770678 0.48294535 83 83 83
-1.5305235 2.561517 0.093088292 94 94 94
-1.1075488 1.5650327 0.059172112 113 113 113
0.71508694 0.68208915 0.3418667 127 127 127
-1.1978444 1.0886869 0.10394778 134 134 134
-0.40200952 0.76313442 0.1831689 29 29 29
-0.29636899 0.6242854 0.15674265 124 124 124
-0.008668175 0.95976561 0.072103523 113 113 113
-1.8708613 4.581284 1.74428 233 233 233
-0.086646631 1.1002668 0.93981069 109 109 109
0.29349756 1.25017 0.90633285 134 134 134
2.8647211 5.8105679 1.3570371 150 150 150
-0.22087783 0.92249715 0.60593271 219 219 219
-1.1798171 1.4199893 0.0719833 134 134 134
-0.62970126 0.85304528 0.56634939 127 127 127
-0.066029929 0.89523125 0.24830534 193 193 193
5.9767281e-05 0.91768706 0.56850731 209 209 209
-0.81710386 0.67728037 0.14433928 124 124 124
-0.41180149 0.55469912 0.18196072 124 124 124
-1.0572507 0.80541819 0.11944964 120 120 120
0.57932448 0.72486985 0.1228657 120 120 120
0.80866742 0.56797683 0.038558383 113 113 113
-0.11672515 1.0758361 0.93042153 147 147 147
0.25081745 1.2311383 0.83969587 120 120 120
0.16621253 1.120153 0.63211745 235 235 235
0.31377071 1.0162523 0.12295719 75 75 75
-0.77552706 0.64733338 0.1456864 90 90 90
-0.84200799 0.84322554 0.11358174 97 97 97
0.031589482 0.9658671 0.099191867 144 144 144
0.78830123 0.5229457 0.23710807 80 80 80
-0.13746758 3.9180505 1.6581547 255 255 255
0.47856346 1.3330097 0.92838794 93 93 93
-0.49115977 0.8663938 0.79241562 232 232 232
-0.46005064 0.86418307 0.82904881 119 119 119
-0.40771675 0.95508403 0.8485949 143 143 143
2.1393092 2.3172405 0.091302417 173 173 173
-1.7527698 1.9034171 0.1947719 79 79 79
-1.3792152 1.4155818 0.11282655 133 133 133
-1.273064 1.1725463 0.093705021 133 133 133
-0.86346674 0.85712743 0.1387905 103 103 103
-0.090009421 0.91471893 0.10928758 107 107 107
0.54536438 0.97584289 0.085297905 161 161 161
0.076214053 0.6650452 0.1267931 152 152 152
0.97906119 0.2940723 0.11205085 161 161 161
0.82791317 1.5768729 0.91258585 93 93 93
2.6557031 4.1770515 1.0518398 81 81 81
-1.8550302 3.0722206 0.28563711 122 122 122
0.58574402 1.0046995 0.75237024 103 103 103
-0.3353717 0.80287123 0.37760338 23 23 23
-0.51753235 2.1434579 -0.15226553 36 36 36
-1.0251814 0.66594726 0.14611425 122 122 122
0.51389927 0.76431155 0.12793101 122 122 122
-0.64669937 1.7929914 0.97979736 137 137 137
-0.53415996 0.99062783 0.88656068 62 62 62
-0.63580775 0.7892828 0.72429425 122 122 122
-2.1908219 2.5602572 0.19274063 126 126 126
0.49848127 1.3038248 0.75456005 92 92 92
0.39036706 1.2539536 0.6453976 89 89 89
2.8685961 2.8375206 0.29838094 107 107 107
-1.9119703 2.1257331 0.19933017 96 96 96
-1.3444663 1.2225453 0.10315242 107 107 107
0.54326057 1.0141228 0.45672199 140 140 140
-0.97768909 0.6595245 0.16983558 122 122 122
-1.2640004 1.0103177 0.056386966 92 92 92
-0.30219281 0.68277675 0.16913362 126 126 126
2.5342927 3.8524158 1.4540935 94 94 94
-0.48085847 0.89880091 0.76603585 63 63 63
-0.52281153 0.914904 0.61512023 16 16 16
3.4609809 2.6606812 0.94740862 210 210 210
2.7951953 3.1262074 0.14271642 145 145 145
-0.55492324 0.86397183 0.54330844 98 98 98
-0.6692006 0.98225188 0.55660766 44 44 44
-0.15504725 0.73886019 0.12688859 153 153 153
-2.0176685 6.0177302 1.6963929 116 116 116
0.86016452 4.5991516 1.579522 255 255 255
-1.7159719 2.3123021 0.35368535 138 138 138
-0.57227421 0.89550078 0.7713061 71 71 71
-1.4460845 1.2950531 0.14256968 138 138 138
-1.2402577 1.4546582 0.10395183 138 138 138
-1.3977443 1.3347368 0.1554894 36 36 36
-1.0942496 0.72570306 0.12838633 128 128 128
-1.2696046 1.0233309 0.12609966 105 105 105
-1.116076 0.76918954 0.12648018 109 109 109
-0.98361897 1.606423 0.96289253 116 116 116
-0.47084314 1.6935118 0.76642483 90 90 90
-0.28435355 1.0186483 0.93926483 123 123 123
0.90406752 1.5796165 0.92247367 108 108 108
0.2213546 1.2526796 0.92926651 100 100 100
-0.65359902 0.88852835 0.79190212 79 79 79
-1.5446823 2.9336686 0.38181135 144 144 144
-0.60399526 0.89015657 0.84694952 141 141 141
-0.64238328 0.9105292 0.89667672 65 65 65
-0.59255922 0.89535648 0.63791752 93 93 93
-0.52877545 0.90970051 0.69205081 43 43 43
-2.5613837 2.9846902 0.20321555 116 116 116
0.26576504 1.1632848 0.56125319 123 123 123
0.10275836 1.1282835 0.54852843 255 255 255
0.70085859 1.0625905 0.88132519 63 63 63
3.2567255 2.7256906 0.12446292 108 108 108
-0.79627216 1.0859503 0.46625295 141 141 141
-1.857141 1.7854089 -0.24695598 104 104 104
-0.68878376 0.85127145 0.36719206 144 144 144
-1.727692 1.739844 -0.15526186 147 147 147
0.64474416 0.94261396 0.25343874 53 53 53
-0.69217265 0.84699124 0.25697008 82 82 82
-1.4785182 1.1740997 -0.13654362 97 97 97
-1.2044077 0.86610126 0.068966292 116 116 116
-0.2386273 1.1916591 0.0013756955 219 219 219
0.48435798 0.84351474 0.083761655 141 141 141
0.50611031 0.85136902 0.19317491 35 35 35
-3.5051117 4.5293298 1.2551317 36 36 36
3.0015619 4.5609422 1.2346592 111 111 111
-0.54985321 0.90292388 0.7213378 96 96 96
-1.3629491 1.3455279 0.068703257 123 123 123
-1.9396784 2.0669401 0.25095472 123 123 123
-1.0032296 1.2622932 0.06061985 62 62 62
-2.9565966 5.4283071 1.0765111 255 255 255
-0.12347653 2.2570994 0.93946636 195 195 195
-0.67036831 0.90492713 0.87107569 73 73 73
-1.2890273 2.0685103 0.55217695 126 126 126
-2.6107917 3.2443628 0.2060212 95 95 95
-3.3191535 4.5545797 0.62904388 9 9 9
-1.2975166 1.9416168 0.5040738 140 140 140
0.54699868 1.1754065 0.86141914 178 178 178
-0.17701083 2.0806868 -0.3044661 204 204 204
0.25810599 3.0501568 1.6723955 90 90 90
1.6061699 2.851644 0.81881148 142 142 142
3.1382113 3.7222683 1.201463 51 51 51
-0.41356438 2.3629198 -0.26395413 45 45 45
-2.3828647 3.8296192 1.154297 230 230 230
0.63763261 1.2426177 0.83887702 111 111 111
0.15891592 1.3038381 0.91095996 90 90 90
0.066705756 1.154155 0.93179137 119 119 119
2.8410423 1.9491146 0.5774858 100 100 100
2.3404403 1.4682614 0.35348472 64 64 64
-0.93184751 2.4002094 1.6801558 127 127 127
-0.62783515 0.72011745 0.86464417 151 151 151
2.0087023 2.2149515 0.054454882 168 168 168
1.5240986 1.9781381 0.053584296 117 117 117
2.7509341 2.7823646 1.1697918 204 204 204
-0.62964743 0.96333688 0.86841512 39 39 39
0.069248423 1.2361617 0.75416297 255 255 255
-1.3463118 2.0508261 0.23610969 152 152 152
1.5583186 1.0772879 0.22277518 223 223 223
-1.1484451 2.7208807 1.5005118 255 255 255
-0.22003986 1.9484509 0.52074152 86 86 86
0.80450195 1.4159231 0.8565976 56 56 56
-1.4149663 3.6511726 2.0573266 204 204 204
-1.3717711 3.8497744 2.080626 67 67 67
0.66343957 4.0210204 1.9011564 230 230 230
0.87359148 1.5934315 0.90252757 106 106 106
0.14892049 1.4102348 0.84545755 86 86 86
0.35790652 1.3371873 0.69672984 70 70 70
0.45371169 1.4599965 0.86097652 47 47 47
0.63381827 1.0860739 0.74291122 167 167 167
0.25254259 1.4661061 0.42685094 38 38 38
-0.99816877 2.6818366 1.766178 104 104 104
0.034948863 4.7991467 2.0960653 202 202 202
0.26085591 4.9847627 2.2622392 200 200 200
0.81651145 4.8221736 2.2098758 255 255 255
0.62923336 1.5080925 0.88467997 88 88 88
0.12494642 1.3606105 0.74623936 94 94 94
0.94122392 1.3099906 0.81709534 112 112 112
0.066210389 1.2261933 0.58696556 26 26 26
1.1482444 1.3213304 0.22016247 210 210 210
3.1756716 2.7192919 0.46911302 100 100 100
1.1064292 1.5734942 0.78192216 102 102 102
0.21074672 1.4059952 0.35535875 226 226 226
1.7117467 0.99038541 0.15929689 67 67 67
2.1560321 1.4645818 -0.098749258 190 190 190
1.0275702 0.64532501 0.33274183 184 184 184
0.98160845 0.75047135 0.40882006 202 202 202
-0.056569979 1.6872848 0.94403088 196 196 196
0.11606134 1.6962382 0.85980546 201 201 201
-0.20246595 3.3000062 0.25604454 175 175 175
0.56248146 1.5546473 0.75546527 45 45 45
4.6132298 2.919384 0.68858522 105 105 105
0.16445531 1.3473474 0.61523849 255 255 255
3.6063578 2.1596189 -0.081777908 112 112 112
2.7273445 1.5593961 0.10459944 123 123 123
0.96469867 1.2115579 0.36238185 221 221 221
2.0500782 1.7708133 -0.029667953 186 186 186
3.3169403 1.9074876 -0.49329767 122 122 122
2.2097783 1.1661649 0.064103805 64 64 64
2.4612212 2.3516378 -0.14293264 215 215 215
