ply
format ascii 1.0
comment PCL generated
element vertex 1089
property float x
property float y
property float z
property uchar red
property uchar green
property uchar blue
element camera 0
property float view_px
property float view_py
property float view_pz
property float x_axisx
property float x_axisy
property float x_axisz
property float y_axisx
property float y_axisy
property float y_axisz
property float z_axisx
property float z_axisy
property float z_axisz
property float focal
property float scalex
property float scaley
property float centerx
property float centery
property int viewportx
property int viewporty
property float k1
property float k2
end_header
-0.52140939 -3.8864102 1.6589385 207 207 207
-1.2469161 -1.279375 1.7036288 118 118 118
-1.2206856 -1.3835895 1.7157586 226 226 226
-1.182653 -1.2623793 1.7384692 215 215 215
-3.050272 -2.6766851 1.975822 130 130 130
-3.2260466 -2.8291254 1.9752238 107 107 107
-2.9928925 -2.3444817 1.9436921 114 114 114
-3.2169333 -2.9013903 1.9229755 157 157 157
-2.9197004 -2.4963887 1.9332913 182 182 182
-3.0246413 -2.3511629 1.970372 93 93 93
-0.17533833 -3.2712159 0.88812846 240 240 240
0.042547528 -2.7927439 0.72696698 239 239 239
0.37539393 -3.2519236 0.63837045 226 226 226
0.22288908 -2.9944925 0.65312445 225 225 225
-1.4463298 -2.8099625 0.87005639 134 134 134
-1.516943 -2.819788 0.73900902 118 118 118
-1.5543448 -2.6899154 0.91720682 213 213 213
-1.5860113 -2.7834115 0.91276515 197 197 197
-1.5334829 -2.7948046 0.82821167 136 136 136
-1.8392625 -2.6464646 0.55672717 112 112 112
-2.6170497 -2.9681306 0.74186534 78 78 78
-2.6197331 -2.5790715 1.0275519 62 62 62
-2.4754539 -2.9663081 1.0215347 78 78 78
1.3538065 -3.2043905 1.8474857 172 172 172
0.83233881 -3.1896741 1.7557817 227 227 227
0.77062529 -3.1845453 1.1617639 253 253 253
0.71700907 -3.1916883 1.761166 215 215 215
0.31181854 -3.2254691 1.1337481 255 255 255
-0.075120084 -3.2120035 0.85409743 205 205 205
-2.0078998 -3.2346539 0.071032263 61 61 61
-2.3910203 -3.0629301 0.15838061 104 104 104
0.92986327 -2.0104344 0.029388648 159 159 159
1.7942973 -3.2005041 1.0536951 218 218 218
-1.9029514 -3.0466096 1.0492263 186 186 186
0.29422465 -3.3296185 1.2839985 230 230 230
1.087909 -2.1969433 0.10932694 255 255 255
-2.0470345 -2.4060686 0.51003724 104 104 104
1.2946551 -3.2715232 1.9651788 181 181 181
-0.46740398 -2.5945895 1.8586249 186 186 186
-3.0737004 -2.1385522 2.0050695 123 123 123
-3.0483389 -2.3396714 1.9473515 62 62 62
-2.7935143 -2.1691449 1.905316 82 82 82
-2.6915619 -2.3641562 1.4887608 107 107 107
-3.1207986 -2.1104531 1.9308554 94 94 94
-3.0739667 -2.1999133 1.9104493 49 49 49
-2.9300025 -1.9404598 1.9673839 79 79 79
-2.6795702 -2.0235157 1.8394159 95 95 95
-2.6731331 -1.6965759 1.905373 80 80 80
-2.9807215 -2.0826232 1.9336382 104 104 104
-0.25026032 -3.2026503 0.91205376 160 160 160
0.29995534 -3.2874825 0.63013977 113 113 113
-1.438527 -2.833046 0.86841476 82 82 82
-1.7704318 -2.8445864 1.0124912 100 100 100
-1.3955379 -2.2280071 0.93257987 69 69 69
-1.5244656 -2.7328815 0.92376536 103 103 103
-1.4039294 -2.2598283 0.91780758 69 69 69
-1.7217537 -3.0650043 0.95907408 100 100 100
-1.3426309 -2.7808673 0.83317107 53 53 53
-1.6292609 -2.9600592 0.70826489 106 106 106
-2.8011291 -2.4364355 1.3764845 34 34 34
-2.5209305 -2.0761814 1.0659331 50 50 50
-2.6156542 -2.9326994 0.97343868 52 52 52
0.63639772 -1.7691813 0.1052073 123 123 123
0.51616865 -1.5910728 0.090728618 47 47 47
1.2837467 -3.1793196 1.9403027 185 185 185
1.275444 -3.2445986 1.941667 180 180 180
0.086797975 -2.7269664 1.7557665 170 170 170
0.66533136 -3.205744 1.7533144 161 161 161
-2.3599796 -2.6763561 1.4017808 38 38 38
-3.1128411 -2.5010722 1.9513612 83 83 83
-3.1299233 -2.3528252 1.947647 80 80 80
-2.7604139 -1.9087714 1.9379011 57 57 57
-1.7118593 -2.5780995 0.88871479 102 102 102
-3.4603674 -2.8185499 0.28927836 132 132 132
0.86682957 -2.1625226 0.086274363 223 223 223
0.78024465 -1.8435024 0.10001085 49 49 49
-2.9248958 -2.6554549 0.12700854 111 111 111
-2.789741 -2.0404532 0.56291121 103 103 103
-3.080204 -2.3041141 0.3092632 130 130 130
-2.9850054 -2.7567699 0.16706322 7 7 7
0.068529598 -2.9343555 0.68962544 183 183 183
0.25139979 -3.0689383 1.5082781 188 188 188
0.42574927 -2.9062462 1.0713618 114 114 114
1.0042745 -2.1492283 0.10551689 242 242 242
-0.091012798 -2.4684179 2.0079834 235 235 235
0.28883529 -3.1893253 1.9690071 149 149 149
0.40957037 -3.1936979 1.8117001 162 162 162
-0.024932353 -2.6715133 2.0098166 111 111 111
-3.1270812 -2.6921761 1.9876446 134 134 134
-3.1300802 -2.2577424 1.931025 43 43 43
-3.5680814 -3.3824933 2.0057137 83 83 83
-3.466188 -2.5087502 1.9580679 71 71 71
-3.3873825 -2.8071902 1.969795 83 83 83
-3.1020756 -3.1733663 1.9555541 119 119 119
-3.0352943 -2.1715415 1.892379 104 104 104
-3.650825 -3.2945406 2.0886595 69 69 69
-3.1311927 -2.6769607 2.0493104 103 103 103
-3.0889103 -2.3009706 1.9619806 119 119 119
-2.8570974 -1.9476005 1.9015312 66 66 66
0.33687109 -2.5752897 1.5295405 204 204 204
0.57706463 -3.1558323 0.98880208 152 152 152
0.24819326 -3.21577 1.2554625 146 146 146
-2.1212056 -2.2877071 1.4577121 40 40 40
-1.4657233 -3.2911329 0.90104014 98 98 98
-1.5213414 -2.8974104 0.8070485 85 85 85
-1.7568001 -3.0322981 0.79610276 82 82 82
-1.3318661 -3.2619605 0.81918836 111 111 111
-2.1933186 -2.2201185 1.4772261 129 129 129
-1.6783643 -2.7473524 0.85417026 91 91 91
-2.4673672 -2.9418876 1.0288856 66 66 66
-1.7249721 -3.2403188 0.91281718 108 108 108
-2.3102851 -3.0268257 1.1055082 83 83 83
-2.5022614 -2.2186806 1.4989878 66 66 66
-2.7041419 -2.3389862 1.380424 87 87 87
-2.6966901 -2.9754348 0.78855211 52 52 52
-2.634748 -3.000489 0.76613265 62 62 62
-2.6501989 -2.9284933 1.0653403 18 18 18
-2.4630401 -2.3342381 1.4985059 89 89 89
-2.7434397 -2.8602903 1.0892102 20 20 20
-2.6484406 -2.8102679 1.3990424 64 64 64
-2.1980047 -2.1878407 0.36524329 19 19 19
-2.9986625 -2.6444533 0.45336023 116 116 116
-2.7278218 -2.2368076 0.49868423 60 60 60
-3.0288744 -2.6677802 0.37962505 109 109 109
0.50966716 -1.7061367 0.11779503 39 39 39
0.80606818 -3.2268891 1.9142838 170 170 170
-0.43684971 -2.5609043 1.9092748 203 203 203
-0.04645668 -2.6533802 1.7491326 170 170 170
-0.49721804 -2.5378504 1.9205639 189 189 189
-3.9994535 -3.5176477 1.9910862 43 43 43
-2.6507084 -1.6784871 1.9117968 120 120 120
1.0884995 -3.183527 0.97826958 145 145 145
-0.88559568 -1.7523444 1.041046 89 89 89
-1.6669432 -2.9425235 0.99034923 101 101 101
-1.7095227 -3.7520051 0.3930032 83 83 83
-2.3936615 -2.6773033 1.1918712 52 52 52
-0.58808106 -2.8072543 1.6703511 167 167 167
0.5127933 -2.9091284 1.8378456 163 163 163
-4.9129019 -4.7248011 2.1814249 77 77 77
-3.9431901 -3.5889421 2.0440457 119 119 119
-3.1355488 -2.5344994 0.27839109 135 135 135
-2.9131145 -2.1818497 0.42811093 116 116 116
0.78846627 -3.2086928 1.543363 196 196 196
-4.943182 -4.3411374 2.1134164 125 125 125
-3.4188492 -2.4352849 1.9751304 105 105 105
-3.6327231 -2.633848 1.9627264 82 82 82
0.56546915 -3.1356463 0.77018481 197 197 197
0.62503439 -3.1404479 0.87245148 215 215 215
-1.0114434 -1.4157113 1.4863087 30 30 30
0.26227382 -3.2571223 0.54792136 243 243 243
-1.3090041 -3.3298209 0.7465089 124 124 124
-1.6105593 -3.2666671 0.71809137 204 204 204
-2.3741086 -2.9170246 0.87012005 55 55 55
-2.5350378 -2.9492996 1.065773 56 56 56
-3.1841898 -3.2513974 1.2245488 88 88 88
-3.1561506 -3.2316799 1.2237967 66 66 66
-3.0661054 -2.971822 1.3688898 102 102 102
-2.6772051 -2.9589674 0.94646442 61 61 61
-3.0540352 -2.9907019 1.3878812 92 92 92
-1.660816 -2.7744603 0.91081452 185 185 185
-1.5474291 -3.6275594 0.36854658 151 151 151
-2.5346539 -2.8265705 1.3877378 182 182 182
-2.6469417 -2.1393347 1.4400483 97 97 97
1.2841151 -3.1804452 1.6307452 223 223 223
-0.34885713 -2.7802913 1.9411088 248 248 248
-0.36887038 -2.6702368 1.8823719 250 250 250
-0.13152292 -2.7188303 1.5685464 170 170 170
0.75875145 -3.1683052 0.60796881 225 225 225
-1.3649043 -2.9373465 0.91231644 156 156 156
-1.5058759 -3.2493656 0.48892954 154 154 154
0.1922756 -2.9599192 1.6499853 207 207 207
0.23823573 -3.0748022 1.8411646 207 207 207
-4.2105346 -3.8632925 1.9810869 71 71 71
-3.8855841 -3.5258963 2.0001736 153 153 153
0.089300096 -2.8771777 1.0539966 234 234 234
-0.91215444 -3.2301424 1.7626394 200 200 200
-1.1110533 -1.3741673 1.6604618 89 89 89
-0.90638685 -3.1834202 1.3953068 138 138 138
-1.3708287 -3.1433611 0.11960248 101 101 101
0.14178027 -4.890471 1.3510834 230 230 230
-1.6264949 -3.269443 0.90748411 144 144 144
0.62801534 -3.138613 0.35513547 201 201 201
-1.5376623 -2.9357502 0.86873025 169 169 169
-2.6510456 -3.0867708 1.3595157 184 184 184
-0.82553601 -3.2094734 1.7923323 224 224 224
-0.81953239 -3.2103522 1.4459902 170 170 170
-0.90585673 -3.0422158 1.5281051 131 131 131
-3.4239547 -3.3241026 1.8111192 110 110 110
-1.63334 -3.2433603 1.0297807 175 175 175
0.28971192 -3.1942289 1.5431713 255 255 255
-0.88859612 -3.1684728 1.6270576 206 206 206
-3.2489197 -3.0000753 1.8574275 117 117 117
-0.80618215 -3.233844 1.2549415 169 169 169
-0.69753557 -2.7471247 1.559902 219 219 219
-0.70829362 -3.1991193 1.547262 240 240 240
-0.70491189 -3.2066243 1.8410205 236 236 236
-0.96204531 -2.5248709 1.8083718 234 234 234
-0.87979615 -3.2078521 1.7885497 228 228 228
-0.64787 -3.1863775 1.8454498 199 199 199
-0.70422572 -3.3300629 1.7694601 216 216 216
-0.87265849 -3.2257795 1.7977785 231 231 231
-4.7275028 -4.5806727 2.0619202 86 86 86
-0.8171255 -3.2031629 1.1734569 193 193 193
-1.7468315 -3.1157968 0.58173269 98 98 98
-2.4043591 -2.7149401 1.0220541 75 75 75
-2.766149 -2.955852 0.83271557 51 51 51
-3.1846819 -2.7951107 0.39061829 243 243 243
-0.74954993 -3.0937214 1.6033263 253 253 253
-0.88378304 -3.199461 1.7888427 228 228 228
-0.97340161 -2.3856905 1.6335818 199 199 199
-0.8920275 -3.1376979 1.2215124 196 196 196
-2.6115363 -2.9340489 0.86460733 58 58 58
-0.34591013 -3.1623096 1.6941457 207 207 207
-0.6367237 -3.3163838 1.6865757 219 219 219
-0.79803705 -3.1124344 1.8825369 247 247 247
-0.71065867 -3.182543 1.7549877 205 205 205
-0.81551361 -3.2092917 1.6400896 219 219 219
-0.81590611 -3.2189097 1.4404335 177 177 177
-0.88813645 -3.2029755 1.9155132 243 243 243
-0.74570072 -3.2459424 1.5054101 180 180 180
-0.68848544 -3.2660923 1.8880672 150 150 150
-0.69721413 -3.1889644 1.6203409 198 198 198
-0.84448361 -3.2125072 1.9297276 221 221 221
-0.92526048 -2.9415572 1.1295372 175 175 175
-2.4048836 -2.7174993 1.30732 61 61 61
-3.0838883 -2.9989424 1.3525218 69 69 69
-1.7484297 -3.1413884 0.54593521 98 98 98
-1.5953093 -3.2061601 0.52181143 103 103 103
-1.2772909 -2.9792686 0.12152193 138 138 138
-3.6399224 -2.9126689 2.0513179 107 107 107
0.23536025 -3.1939113 0.90745652 232 232 232
-1.422482 -3.2110844 0.60703224 79 79 79
0.24445668 -3.2167342 0.58838171 241 241 241
0.32940349 -3.2365947 0.63969278 255 255 255
-0.22900981 -3.1598132 1.6388596 255 255 255
-0.80037403 -3.0802963 1.3246169 221 221 221
-0.22474821 -3.1736412 1.5467598 245 245 245
-0.23188315 -3.2355163 1.8709087 246 246 246
-0.31570366 -3.3274434 1.3820696 209 209 209
-0.37274975 -3.1218026 1.8055704 220 220 220
-0.74569738 -3.2397401 1.5596015 182 182 182
-0.19896345 -3.2651827 0.88759583 222 222 222
-0.18839617 -3.146426 1.2134323 189 189 189
-0.20969127 -3.1293271 0.82953215 120 120 120
-0.56615251 -2.9847476 1.7131042 214 214 214
-0.42844707 -3.2344124 1.52623 218 218 218
-0.81240112 -3.2349458 1.5984416 184 184 184
-0.93844569 -3.0267065 1.5588661 221 221 221
-0.49007946 -3.0398602 1.2741927 201 201 201
-2.6758225 -2.9129744 0.74110323 88 88 88
-0.95020312 -2.9958401 1.4216795 228 228 228
-0.28739682 -3.0650051 1.9626245 197 197 197
-0.17210928 -3.233536 1.7492294 142 142 142
-1.1002622 -1.5691513 1.7477305 71 71 71
0.91768456 -3.3350153 1.8528328 150 150 150
-0.91970474 -2.9946194 1.9198525 192 192 192
-0.86013418 -3.2702336 1.9147239 173 173 173
-0.80476558 -3.1541567 1.9746624 123 123 123
-0.88231581 -3.0963848 1.5711476 99 99 99
-0.70168048 -2.3624644 1.1355193 136 136 136
-0.39797035 -3.2793033 1.3760787 159 159 159
-0.83286381 -2.9341972 1.2139636 184 184 184
-0.67130423 -3.1270936 1.4380707 110 110 110
-1.0315607 -2.8531625 1.5146846 162 162 162
-1.0116001 -2.9269085 1.4574347 96 96 96
-0.93692583 -2.9826798 1.166316 122 122 122
-0.75779492 -3.2224054 1.0959761 130 130 130
-1.5125291 -3.5523925 0.64127958 91 91 91
-1.7018725 -3.6723583 0.3713192 94 94 94
-1.7445219 -3.9107268 0.27802309 92 92 92
-1.576827 -3.611697 0.50663966 88 88 88
-1.7406796 -3.7225537 0.49344453 154 154 154
-1.6649132 -3.1886528 0.52644527 78 78 78
-0.13164526 -3.2087233 1.5322453 137 137 137
0.35922197 -3.2473292 1.8803719 146 146 146
-0.6769914 -3.2512741 1.4664099 99 99 99
0.39120048 -3.3137589 0.85053104 202 202 202
-0.38475981 -3.245543 1.166958 111 111 111
-0.51151305 -2.9541464 1.3850614 85 85 85
-1.0047134 -3.0241904 1.1538994 99 99 99
-0.3874768 -3.29129 1.4384933 161 161 161
-0.64958817 -3.3209937 1.0753497 184 184 184
-0.58919257 -3.3926549 1.6989278 157 157 157
0.37258855 -3.3116798 1.7496309 172 172 172
-0.41244268 -2.9842441 1.9683255 189 189 189
0.38376275 -3.3300185 1.7747598 164 164 164
0.46073088 -3.3026216 1.6239492 154 154 154
-0.78911227 -3.277473 1.9683657 191 191 191
-0.98744607 -2.9796252 1.9816835 187 187 187
-0.51590782 -3.309767 2.0748487 149 149 149
-0.92486012 -2.9925265 2.0664904 201 201 201
-0.46774378 -3.0959871 1.432436 194 194 194
-0.98034221 -2.7500048 1.4253013 129 129 129
-0.78612441 -3.1645763 1.4495684 132 132 132
-0.97342753 -2.795254 1.3808484 144 144 144
-0.73773926 -3.3410118 1.220753 130 130 130
-0.77662766 -3.5043705 1.4117508 110 110 110
-1.0263947 -2.9479866 1.3677673 130 130 130
0.18190561 -3.1312602 0.61738217 185 185 185
-1.0060843 -1.7056061 1.2007592 156 156 156
-1.0281105 -1.9033936 1.2410843 131 131 131
-1.749115 -3.8096719 0.50535393 92 92 92
-1.1720374 -3.5774872 0.64603722 99 99 99
-0.49842253 -2.7917857 1.8343821 201 201 201
-0.34184539 -3.160949 1.9260193 183 183 183
-0.43868849 -3.074826 1.6090939 97 97 97
-0.23432316 -3.1710002 1.2627848 124 124 124
-0.75016761 -3.469979 1.3858016 160 160 160
0.31735468 -3.1439016 1.7799059 153 153 153
0.067518458 -3.4593399 1.9854201 229 229 229
0.50836146 -3.435185 2.11483 198 198 198
-0.060564496 -3.3177829 1.8926474 185 185 185
-0.53341019 -2.9012091 1.8133911 190 190 190
0.41831717 -3.3438056 2.0719781 127 127 127
-1.0566715 -2.7873564 2.0208821 168 168 168
-1.6817241 -1.4936038 1.9393189 139 139 139
-0.51433992 -3.5278921 2.195338 206 206 206
-0.88254589 -3.2520647 2.0903316 198 198 198
0.42670935 -3.3417356 1.3500174 202 202 202
-0.26361817 -3.1332734 1.3261178 102 102 102
-0.80475694 -3.2987735 1.2083969 147 147 147
-0.11120856 -2.6591938 0.83003503 183 183 183
1.1329528 -3.7990537 1.7122099 175 175 175
-0.55346483 -2.8707767 1.9880458 232 232 232
-0.41087228 -2.9909089 1.9562292 212 212 212
-0.97363323 -2.8880386 1.9882472 241 241 241
-0.76524568 -3.0807846 1.9692464 210 210 210
-1.2574793 -2.4018474 2.015455 229 229 229
-0.81429619 -3.0107203 2.008559 129 129 129
-0.96396226 -3.0387464 1.1282945 118 118 118
-1.0006204 -2.8648612 1.3705548 133 133 133
-0.91137445 -3.034142 1.307698 147 147 147
-0.67796576 -3.3237019 1.0542729 117 117 117
0.006641781 -3.3898344 1.9414214 225 225 225
-0.30898026 -3.4068773 1.6465888 188 188 188
-0.98736471 -2.8562689 1.9703686 219 219 219
-0.69659215 -3.1998241 1.9732224 210 210 210
0.065577418 -3.2167518 0.73640108 139 139 139
-0.80840212 -3.3206596 1.5629482 115 115 115
0.28162369 -3.1803343 0.62581831 200 200 200
0.57020515 -3.4419749 2.1146295 226 226 226
0.50191623 -3.4228251 1.7755601 191 191 191
0.72715729 -3.5168681 1.8575654 191 191 191
-0.75640011 -3.2971237 2.2277827 243 243 243
-0.8495506 -3.1322315 2.174479 219 219 219
-0.42909983 -3.8004997 2.250658 145 145 145
0.085885517 -3.3072026 1.063229 157 157 157
0.3992562 -3.3549154 0.93939525 163 163 163
0.35361272 -3.1995475 1.0819725 109 109 109
-0.95624328 -3.0457499 1.1384212 138 138 138
0.54532456 -3.3739254 0.47041872 186 186 186
-0.10074956 -3.4791107 2.1559172 213 213 213
-0.7961992 -3.3468428 2.1522727 207 207 207
0.59949589 -3.4118714 1.4664255 203 203 203
-0.60638332 -3.3611014 1.6086298 118 118 118
0.43958631 -3.3858678 0.53290379 176 176 176
-0.88251501 -1.6873761 1.0796155 128 128 128
0.17458633 -3.0248868 1.5584147 156 156 156
-0.444455 -3.1666653 2.0741265 213 213 213
-0.5429399 -3.4548235 1.7486401 170 170 170
0.88306499 -3.5271118 2.3474617 255 255 255
0.74350607 -4.2858205 2.3307645 255 255 255
1.2405876 -3.5163386 2.2312329 176 176 176
0.88368988 -4.1501818 2.3373237 190 190 190
0.54414219 -3.5427663 2.2632797 195 195 195
0.77571452 -4.2423463 2.3722475 226 226 226
0.47112328 -3.4787943 2.1524732 154 154 154
0.83893025 -3.5402868 2.0752101 167 167 167
-0.4935267 -3.6204326 2.3485503 161 161 161
-0.23853561 -4.0764165 2.3612406 243 243 243
-0.30019864 -3.5108066 2.2658868 252 252 252
-0.41546661 -3.5899022 2.3461735 206 206 206
0.28852546 -4.2097883 2.3990099 223 223 223
-0.071749546 -4.2574039 2.3773468 162 162 162
1.4158994 -3.7440789 1.2705703 159 159 159
0.86857575 -3.5778859 0.35022303 160 160 160
1.1444569 -3.5461626 0.33679292 166 166 166
0.50029182 -3.3894405 2.2055235 194 194 194
-2.5541306 -3.0856762 2.2949131 179 179 179
0.94558924 -3.3208206 1.3327228 195 195 195
0.42271566 -3.382076 1.4177902 151 151 151
-0.75044048 -3.4450557 1.6527656 145 145 145
0.39511225 -3.2997594 0.63270748 205 205 205
0.52270967 -3.35865 0.62801194 177 177 177
0.42484242 -3.3163266 1.8660325 163 163 163
-0.014910927 -3.2856314 0.80798656 147 147 147
-0.65199369 -3.4040182 1.1669165 171 171 171
-0.63189566 -3.3650043 1.0764804 89 89 89
-0.68266815 -3.1902812 1.0324599 117 117 117
-0.95193911 -3.2401798 0.85420561 86 86 86
-1.2299938 -3.3715942 0.76777935 183 183 183
0.53873312 -3.3343768 2.3235295 98 98 98
0.29996097 -3.3417277 2.3872077 166 166 166
0.2841652 -3.3625598 2.1582797 161 161 161
-0.41468376 -3.5466089 2.4095883 68 68 68
-0.35435125 -3.3924835 2.2290683 218 218 218
-0.32701573 -3.4265683 2.238941 218 218 218
-0.60629046 -3.4083662 2.3054094 203 203 203
-0.12311867 -3.3863847 2.3792799 204 204 204
-0.14290963 -3.3458116 2.287652 167 167 167
0.018134089 -3.547549 2.4683244 160 160 160
0.76385456 -3.3073807 1.5672895 153 153 153
0.80179161 -3.3108261 1.7942666 187 187 187
0.37779304 -3.3381665 1.868174 169 169 169
-0.56355262 -3.4444165 1.8288265 184 184 184
-0.54626799 -3.4526427 1.5845351 158 158 158
-0.61703396 -3.3836255 1.8594987 128 128 128
0.31123504 -3.3239825 0.99683541 175 175 175
0.39356649 -3.3489752 0.82644171 182 182 182
-0.11539 -3.3726413 0.82011169 163 163 163
0.92254233 -3.3607035 0.45984074 173 173 173
-0.89399427 -3.328192 1.0267782 114 114 114
-0.72487509 -3.3922234 1.0672938 152 152 152
-0.66399115 -3.3839889 1.0906343 152 152 152
-0.72598487 -3.3793142 1.0348827 141 141 141
-1.6514882 -3.2524893 0.60513884 142 142 142
0.67384505 -3.5271897 2.2306747 234 234 234
1.505219 -3.6908817 2.1758978 206 206 206
0.75301594 -3.53877 2.3446093 207 207 207
1.0017098 -3.6445839 2.3426106 146 146 146
0.23870988 -3.7440803 2.3964787 167 167 167
1.5005208 -3.6447368 2.1551762 182 182 182
0.57303321 -3.6156194 2.2078335 161 161 161
-0.11986633 -3.6345067 2.2930489 205 205 205
-0.577232 -3.6821513 2.3439443 153 153 153
0.82242376 -3.6475861 1.179497 174 174 174
-0.42267057 -3.6201031 1.571185 158 158 158
0.56074905 -3.4245558 0.57243985 210 210 210
0.37022299 -3.2765527 1.5262412 226 226 226
0.52724719 -3.3101234 1.4953729 166 166 166
0.50576657 -3.3245952 2.3411615 95 95 95
0.55478382 -3.3117385 2.365284 76 76 76
0.5517574 -3.3238678 2.3863206 94 94 94
0.53207111 -3.3289723 2.3687203 255 255 255
0.96785909 -3.3394046 2.1783338 205 205 205
0.32635701 -3.3489885 2.1760273 200 200 200
0.27226323 -3.3511679 2.218421 183 183 183
0.59278101 -3.3190987 2.1090665 177 177 177
0.90914303 -3.3511355 2.297991 182 182 182
0.37115547 -3.3472655 2.2853491 183 183 183
0.4563342 -3.3579638 2.2685645 154 154 154
0.64910239 -3.3608916 2.1735382 189 189 189
0.53050536 -3.3635278 2.1804013 173 173 173
1.3113825 -3.3290806 2.1959269 156 156 156
0.58345878 -3.3562536 2.0890422 186 186 186
1.8345069 -3.3999 2.3880332 164 164 164
-0.33015141 -3.3847377 2.3234122 254 254 254
-0.10760647 -3.6020796 2.4928792 219 219 219
-0.60712671 -3.469177 2.2721305 251 251 251
-0.39371842 -3.3739305 2.2213883 125 125 125
-0.37119469 -3.3296049 2.3381071 255 255 255
0.89676183 -3.3281608 1.4655228 193 193 193
0.47273007 -3.3646674 1.384011 209 209 209
0.54642165 -3.3218024 1.740262 169 169 169
0.49179712 -3.3514926 1.4204378 131 131 131
0.599199 -3.3210721 1.7134415 159 159 159
0.3965331 -3.340694 1.5192153 167 167 167
-0.81022251 -3.4445255 1.7385632 173 173 173
-0.30093914 -3.4106576 1.3371625 186 186 186
-0.29753345 -3.4185047 1.6638716 173 173 173
-0.25997066 -3.3587759 1.6558834 156 156 156
0.45622826 -3.3652396 0.81653321 208 208 208
1.0292094 -3.346035 0.45671049 194 194 194
0.42904133 -3.3275006 1.0409191 172 172 172
0.60306352 -3.3821425 0.80249268 163 163 163
0.06440407 -3.3812537 1.0211878 156 156 156
0.068768479 -3.3858004 0.80326605 166 166 166
0.08909151 -3.3481925 0.8442893 150 150 150
-0.59799176 -3.2692041 0.9885456 41 41 41
-0.85992908 -2.882298 1.1607889 43 43 43
-1.7669567 -3.4034214 0.6431576 149 149 149
-1.7914664 -3.3111808 0.68898493 82 82 82
-1.7470311 -3.3044724 0.44397435 87 87 87
-1.6567121 -3.6301453 0.45760372 75 75 75
-1.7974476 -3.4408071 0.57972383 74 74 74
-1.714915 -3.4643264 0.338258 91 91 91
-1.7513466 -3.2691712 0.73603094 49 49 49
-0.045707647 -3.352952 2.1854765 229 229 229
-0.039554209 -3.365489 2.2762508 230 230 230
0.8297587 -3.3734539 2.1837986 195 195 195
0.33645824 -3.3569779 2.1759901 200 200 200
0.85383463 -3.3137403 2.2866316 182 182 182
-0.57801551 -3.6424289 2.4283175 57 57 57
-0.16431588 -3.3431189 2.3655782 204 204 204
-0.025596293 -3.3425093 1.509477 172 172 172
0.52626252 -3.3779233 1.3499714 109 109 109
-0.40227053 -3.2930601 1.529768 190 190 190
-0.73741007 -3.3964577 1.7788862 180 180 180
-0.23535237 -3.3951182 1.1855481 156 156 156
0.04317496 -3.3591938 0.81638503 166 166 166
0.900756 -3.3075509 0.62375963 208 208 208
-0.62352753 -3.3675492 1.1784257 136 136 136
-0.73637056 -3.3726788 1.0371056 147 147 147
0.077157497 -3.5668466 2.2858412 148 148 148
1.0131536 -3.8650925 1.9022261 175 175 175
0.85895228 -3.6740193 2.4064157 161 161 161
-0.10633072 -3.777169 2.2889261 139 139 139
1.6027311 -3.7499022 1.371841 221 221 221
1.5388414 -3.6949613 1.335984 210 210 210
-0.19296619 -3.5403855 1.5815477 161 161 161
0.9519856 -3.6156912 0.37794873 166 166 166
0.886594 -3.3207273 1.4673316 193 193 193
-0.73504239 -3.477869 1.6149082 156 156 156
0.44923937 -3.3114734 2.4169018 255 255 255
0.5767315 -3.3436527 2.3468976 255 255 255
0.77365863 -3.3407254 2.3812642 152 152 152
0.51651728 -3.3324287 2.2339091 202 202 202
1.8160766 -3.3557298 2.2341084 163 163 163
1.1989874 -3.4036751 2.2389314 176 176 176
0.98548585 -3.3992176 2.2313414 181 181 181
1.1035765 -3.372416 2.4736986 73 73 73
-0.58640367 -3.4446094 2.2708828 149 149 149
-0.2331416 -3.3311863 2.3076782 241 241 241
1.4610863 -3.3004062 1.5269697 170 170 170
0.37454605 -3.2843401 1.4448647 227 227 227
0.90143186 -3.3203914 1.4877061 133 133 133
0.50397038 -3.3451259 1.3986913 168 168 168
0.52045822 -3.3096366 1.517789 163 163 163
0.36987963 -3.2866213 1.3451875 195 195 195
-0.090224899 -3.3483043 1.5142305 204 204 204
-0.31742561 -3.3882906 1.420766 181 181 181
-0.69927329 -3.3708994 1.9269063 118 118 118
-0.73242891 -3.5940711 1.756844 193 193 193
-0.17520064 -3.2681651 1.8039801 204 204 204
-0.35518968 -3.4144058 1.4486233 131 131 131
-0.042705148 -3.3411512 1.7996298 151 151 151
-0.33706328 -3.3855724 1.5343025 107 107 107
-0.56478202 -3.4260645 1.6366407 150 150 150
-0.031298157 -3.3760827 1.5455376 116 116 116
-0.14532842 -3.2957199 1.5549362 242 242 242
-0.53709316 -3.3942008 1.8358012 174 174 174
-0.21785791 -3.399955 1.4435484 102 102 102
0.44002643 -3.3512919 0.9205296 194 194 194
0.33879539 -3.3259983 1.0204461 164 164 164
0.38935387 -3.250073 0.42172006 191 191 191
1.0665362 -3.3381391 1.033457 119 119 119
0.45600432 -3.3587153 0.54433465 211 211 211
-0.57905841 -3.4276807 1.0275784 194 194 194
-0.8574574 -3.4055743 0.9910515 127 127 127
-0.78295881 -3.1867685 1.0300663 50 50 50
-0.29390198 -3.358712 1.1652614 164 164 164
-0.077659309 -3.301357 1.1674747 164 164 164
-0.66990173 -3.3779478 1.095335 164 164 164
-0.63504946 -3.4510844 1.1999377 167 167 167
-0.79158151 -3.394634 1.122902 167 167 167
-0.63884187 -3.252419 1.0311507 115 115 115
-0.066995203 -3.3045416 0.83998603 146 146 146
-0.74009931 -3.2803841 0.98438674 119 119 119
-0.57655454 -3.3190668 1.0064162 88 88 88
-0.18148576 -3.2757399 0.75038737 102 102 102
-0.46634996 -3.3374493 0.94463867 155 155 155
-1.6024636 -3.5617087 0.86000919 96 96 96
-1.7684951 -3.7649019 0.66239715 87 87 87
-1.4312316 -3.3328719 1.0067645 159 159 159
-1.2555748 -3.8716512 0.76727116 164 164 164
-1.3635248 -3.1574352 0.88664329 168 168 168
-2.3785644 -2.817184 1.4141145 23 23 23
-0.88171571 -2.3074713 1.0104225 162 162 162
-0.49188614 -2.8045347 0.70147049 184 184 184
-0.94284999 -2.2268798 1.0128707 157 157 157
-1.7971725 -3.5442908 0.40526125 82 82 82
-1.5606781 -3.407073 0.65547842 136 136 136
-1.8083932 -3.4515822 0.55184883 109 109 109
-1.6383708 -3.4341981 0.63375437 132 132 132
-1.7447616 -3.4300263 0.45984462 73 73 73
-1.6264567 -3.410912 0.50424552 150 150 150
-2.355484 -2.8216813 1.1324217 40 40 40
-2.5166066 -2.8908012 1.0335642 36 36 36
1.499258 -3.3316979 2.1982985 217 217 217
1.5229663 -3.3458376 2.3168678 214 214 214
0.53862846 -3.3235445 2.2689917 165 165 165
0.7390874 -3.306555 2.1719303 189 189 189
0.92405719 -3.2940483 2.4483156 73 73 73
1.5253596 -3.32165 2.2157574 138 138 138
0.80622792 -3.3691859 2.2959871 165 165 165
0.77022105 -3.3106089 2.2535808 132 132 132
0.35014623 -3.3521931 2.1452594 123 123 123
1.2182972 -3.1413138 2.3243244 148 148 148
-0.0868892 -3.3666143 2.3322127 255 255 255
0.95059729 -3.289325 1.7415373 181 181 181
0.9236896 -3.2975354 1.3607324 210 210 210
0.98351938 -3.3115814 1.7658902 186 186 186
1.4760526 -3.3498468 1.9372754 190 190 190
0.46592417 -3.3071046 1.7491044 181 181 181
-0.5841437 -3.4221396 1.5104271 229 229 229
-0.28727955 -3.4242661 1.4020821 181 181 181
-0.16451728 -3.3705027 1.4693269 188 188 188
-0.81966937 -3.461133 1.402541 130 130 130
0.023942204 -3.3257401 0.78371739 160 160 160
1.0840148 -3.4162481 0.59286565 167 167 167
0.39689457 -3.3534582 0.46997586 214 214 214
0.93052435 -3.3501208 0.32744339 186 186 186
-0.61223042 -3.3796678 1.0491929 194 194 194
-0.90230376 -3.3573399 0.79268479 124 124 124
-0.68610412 -3.4571865 1.0744967 184 184 184
-0.89274466 -3.2577298 1.0213175 118 118 118
0.47167119 -3.3277147 2.4221778 255 255 255
0.057015717 -3.3219662 2.1895773 218 218 218
0.4517456 -3.3719988 2.0715349 124 124 124
0.45334309 -3.360357 2.3174078 158 158 158
0.81420135 -3.360707 2.1047876 173 173 173
-0.3167187 -3.398602 2.3259187 231 231 231
-0.21663369 -3.393559 2.1570187 207 207 207
0.36846656 -3.3218915 1.7392591 216 216 216
0.94639903 -3.2870445 1.7721578 186 186 186
0.80858725 -3.3129294 1.4924755 168 168 168
-0.33329433 -3.398664 1.616496 102 102 102
-0.63390338 -3.1655717 1.0269704 39 39 39
2.1579616 -4.0069356 2.3858097 176 176 176
1.0153488 -3.712486 1.6099857 175 175 175
0.49255574 -3.3005762 2.3140478 83 83 83
0.57277 -3.3289354 2.2635431 140 140 140
0.59216791 -3.3523152 2.2648458 140 140 140
1.4973133 -3.2153311 2.4032037 155 155 155
-0.8348164 -3.3413773 1.989242 217 217 217
-0.40556228 -3.3363156 2.2181647 237 237 237
-0.87877977 -3.3395998 2.0737605 241 241 241
1.4674745 -3.3049741 1.8053669 189 189 189
0.93741477 -3.3188269 1.3925514 221 221 221
0.51230419 -3.2999623 1.4913256 161 161 161
0.98169607 -3.3067744 1.4359993 167 167 167
0.35868484 -3.2213123 1.6729406 177 177 177
-0.68553382 -3.2844043 1.5640999 244 244 244
-0.68584514 -3.365931 1.806088 206 206 206
-0.22892815 -3.3409135 1.4103805 154 154 154
-0.70119303 -3.3514588 1.4504321 155 155 155
-0.75372064 -3.431313 1.4484473 99 99 99
-0.084172428 -3.3480706 1.7363206 183 183 183
-0.85771543 -3.3997667 1.4450662 134 134 134
0.47844106 -3.3837125 0.68069637 194 194 194
0.55437261 -3.335417 0.5298112 168 168 168
0.61402124 -3.3579767 0.39748552 121 121 121
0.37918916 -3.3502207 0.60193777 158 158 158
0.02211489 -3.4706461 0.75917459 229 229 229
-0.69579834 -3.3506727 1.0459207 160 160 160
0.077531718 -3.3399236 1.0763626 147 147 147
-0.66148746 -3.3703363 1.0313269 85 85 85
-0.39290172 -3.2682641 1.1568699 123 123 123
-0.58818525 -3.2562156 1.0223221 128 128 128
-0.69243532 -3.4586394 1.1093948 149 149 149
-1.1868595 -3.727133 0.83047503 146 146 146
-0.90677673 -2.2668397 0.99872899 189 189 189
-0.95032769 -2.1977258 1.0151615 131 131 131
-0.93585038 -2.3324604 1.0466079 191 191 191
-1.7204869 -3.4852343 0.35431281 39 39 39
-1.6265724 -3.4558225 0.65547639 54 54 54
-1.5895879 -3.9801261 0.29877105 136 136 136
-1.728313 -3.5937853 0.27412227 64 64 64
-1.4687417 -3.3115778 0.69625676 48 48 48
-1.4859384 -3.8834791 0.36442658 49 49 49
-1.6855496 -3.728019 0.13061236 94 94 94
-1.7065196 -3.3526666 0.51603842 85 85 85
-2.6436152 -2.9400055 0.90105039 44 44 44
-2.5151742 -2.8844175 0.89778191 41 41 41
1.5040077 -3.3313203 2.1986902 224 224 224
0.5137493 -3.2893622 2.4273725 117 117 117
1.3501741 -3.2452488 2.2538507 227 227 227
1.0836977 -3.3356957 2.1808276 175 175 175
0.9061383 -3.3447402 2.2132492 177 177 177
-0.49568045 -3.3503644 2.1613033 210 210 210
-0.64423758 -3.3370464 2.0775828 208 208 208
-0.30049381 -3.3612709 2.3571362 246 246 246
1.5208862 -3.3347495 1.6078596 200 200 200
0.40988791 -3.2849529 1.4917525 124 124 124
-0.57566196 -3.4185653 1.6841618 179 179 179
-0.028111409 -3.4047921 1.7344882 183 183 183
1.0742891 -3.4027138 0.77492517 194 194 194
0.32628924 -3.3481336 1.0034573 163 163 163
1.3990287 -3.2802441 0.28336409 156 156 156
0.41446915 -3.390959 0.89361256 156 156 156
0.02710454 -3.4004307 0.97380751 161 161 161
-0.57843786 -3.3631837 1.0370523 89 89 89
-0.96356958 -2.3792202 1.03492 127 127 127
-1.6343716 -3.565099 0.53442889 76 76 76
-1.6698725 -3.4916201 0.41760543 89 89 89
-2.4102013 -2.8681688 0.91547126 45 45 45
-0.022229113 -3.3551426 2.2803035 240 240 240
-0.36224011 -3.3396404 1.3249364 179 179 179
0.9979949 -3.3116777 0.2587553 163 163 163
-0.31889659 -3.3287582 1.178337 165 165 165
1.601552 -3.2740891 2.4427757 108 108 108
-0.088442616 -3.3481641 1.5136061 212 212 212
-0.33850142 -3.3718956 1.2469711 165 165 165
0.43884832 -3.3459074 0.92430371 214 214 214
0.30091462 -3.2934074 1.0336818 173 173 173
-1.3436471 -3.3277602 0.78642875 86 86 86
0.36981261 -3.2876627 2.4276085 132 132 132
0.35601434 -3.3300273 2.0347047 161 161 161
-0.18926753 -3.3018742 2.2225699 151 151 151
-0.74355477 -3.3845961 2.0053658 255 255 255
0.42998433 -3.3690026 1.480966 192 192 192
0.75457144 -3.2356246 1.7529949 193 193 193
1.5146296 -3.3265765 1.304347 129 129 129
-0.60223776 -3.3885376 1.5611507 197 197 197
-0.35365474 -3.3362925 1.653862 178 178 178
-0.82878804 -3.3993206 1.3576769 158 158 158
-0.24945797 -3.4046524 1.426684 203 203 203
-0.35802451 -3.3655353 1.4737381 106 106 106
1.5281112 -3.3526525 0.098832108 130 130 130
0.60971355 -3.3801577 0.75925899 171 171 171
1.4960716 -3.3368695 0.16889624 146 146 146
-0.33592689 -3.3694057 1.161132 165 165 165
-0.71962821 -3.4708314 1.027055 128 128 128
-0.78170633 -3.14487 1.0393801 124 124 124
-1.6355977 -3.6971085 0.69758195 100 100 100
-1.3552427 -3.5395968 0.39836243 52 52 52
-1.49814 -3.3546174 0.66468 81 81 81
-1.6849316 -3.4195144 0.6290471 51 51 51
-1.5285186 -3.6342111 0.3117182 82 82 82
-1.5404279 -3.3490121 0.53657436 64 64 64
0.39956427 -3.3666577 2.0371127 161 161 161
-0.51235569 -3.3313696 2.1577625 210 210 210
-0.1800237 -3.3296828 2.2334521 253 253 253
0.43277678 -3.3438261 1.3498466 219 219 219
0.84202892 -3.2965758 1.6222845 174 174 174
1.3202078 -3.2636611 1.5179087 137 137 137
0.95100367 -3.3241799 1.329726 201 201 201
1.895123 -3.5293422 1.8321345 220 220 220
-0.24718866 -3.404532 1.3357455 195 195 195
0.94731307 -3.2964904 0.53116548 205 205 205
1.4958962 -3.336551 0.11171822 130 130 130
1.0490749 -3.351994 0.81149358 182 182 182
0.0030305539 -3.3820832 1.0172874 162 162 162
-0.80380213 -3.1143684 1.0561472 124 124 124
-1.2748425 -3.5368619 0.9093101 109 109 109
-0.668989 -2.2073493 0.98383892 134 134 134
-0.8808834 -2.2075663 1.0149609 205 205 205
-1.8313649 -3.5262132 0.42738566 73 73 73
0.62899393 -3.3452389 2.4347675 248 248 248
1.1679131 -3.3847971 2.2345283 175 175 175
-0.30444935 -3.360945 2.359761 231 231 231
1.4596907 -3.3381591 1.9415054 196 196 196
-0.59262973 -3.4130123 1.5123262 250 250 250
-0.60089755 -3.3925142 1.5633718 197 197 197
-0.24007218 -3.417274 1.3702117 229 229 229
0.14904915 -3.4245024 0.96006924 109 109 109
-1.7712961 -3.3983431 0.48540244 92 92 92
0.58529466 -3.345125 2.4692216 73 73 73
0.89443135 -3.3706155 2.0957541 179 179 179
-0.0012641669 -3.3683922 1.593094 175 175 175
0.47606486 -3.3404033 1.3572381 113 113 113
-0.28884876 -3.3401749 1.2097734 162 162 162
-1.8114901 -3.4062014 0.50103849 72 72 72
0.79967147 -3.3166554 2.0481379 176 176 176
-0.75734836 -3.2936718 2.1770971 111 111 111
0.46815056 -3.3090763 1.6241384 182 182 182
0.54396778 -3.3326566 1.3568592 175 175 175
-0.33893692 -3.3704548 1.3529612 193 193 193
-0.48059732 -3.2133152 1.5383917 196 196 196
-0.11209272 -3.3967543 1.4666938 148 148 148
0.035976101 -3.3050723 1.0946202 146 146 146
0.040402751 -3.3095093 0.92042488 153 153 153
-0.94121832 -3.1550636 1.0790008 129 129 129
-0.29703078 -3.338748 1.0302895 140 140 140
-1.5399985 -3.3394897 0.72663516 48 48 48
-1.7632197 -3.561264 0.38828561 59 59 59
-1.7408015 -3.3399308 0.46157703 52 52 52
-1.6553208 -3.4121039 0.3943114 66 66 66
-1.6515617 -3.457896 0.4675034 52 52 52
-1.7309374 -3.4423254 0.55259442 88 88 88
-1.4661518 -3.3000188 0.67489469 62 62 62
1.6489474 -3.3430846 2.2250743 172 172 172
-0.837255 -3.3457501 1.9603261 210 210 210
0.80456936 -3.2711816 1.6277343 176 176 176
-0.70343506 -3.3898482 1.4711124 192 192 192
-0.13181961 -3.3790159 1.4402325 149 149 149
0.90499622 -3.2952268 0.94069099 187 187 187
-0.93965924 -3.1091747 1.0561559 137 137 137
-1.3101999 -3.3733149 0.70309287 75 75 75
-1.3807422 -3.465107 0.45414999 61 61 61
0.57949096 -3.3244898 2.1524367 124 124 124
-0.37582538 -3.261575 2.0944982 207 207 207
-0.84118629 -3.3339024 2.1039248 213 213 213
-0.28152108 -3.2910929 2.1236012 210 210 210
0.35682684 -3.2734644 1.9085333 214 214 214
0.21335493 -3.3000243 1.519786 158 158 158
0.99144047 -3.343138 1.2463835 175 175 175
0.52620125 -3.3789811 1.3482602 109 109 109
-0.116722 -3.328058 1.8022882 213 213 213
-0.37775242 -3.3149917 1.66186 166 166 166
-0.65728462 -3.4163222 1.468583 153 153 153
-0.92786056 -3.523104 0.69779992 88 88 88
-0.91871148 -3.2519188 1.0669327 123 123 123
-1.4261197 -3.3093576 0.56368899 61 61 61
-1.445886 -3.4004037 0.67628914 133 133 133
-0.67050266 -3.3963761 1.4442618 151 151 151
-0.52376419 -3.2670307 2.1878452 143 143 143
-0.74844462 -3.1755826 1.6754671 97 97 97
-0.34533024 -3.5035851 0.89587253 117 117 117
-1.5475533 -3.3144906 0.6596964 74 74 74
-1.4553859 -3.3221805 0.68777019 130 130 130
-1.4657339 -3.38223 0.68546122 55 55 55
-1.0552678 -3.2826085 0.83196753 96 96 96
0.37332204 -3.3330746 2.0997586 222 222 222
0.31387842 -3.2372098 1.5316648 232 232 232
-0.10678731 -3.2675984 1.8372635 185 185 185
0.43076104 -3.3292503 1.0875044 218 218 218
0.43678367 -3.2944973 0.60359126 180 180 180
-1.5923312 -3.3564007 0.43814936 65 65 65
-1.6260062 -3.5749435 0.27459934 82 82 82
-1.5430584 -3.3428364 0.54062426 66 66 66
-0.73146009 -3.2226324 1.7500581 172 172 172
-1.4750689 -3.2783859 0.68756557 94 94 94
-1.5182976 -3.2908533 0.66475582 77 77 77
-1.4736838 -3.314225 0.72726774 108 108 108
-1.3318727 -3.2578218 0.74885309 47 47 47
-1.5237894 -3.2893054 0.70493472 64 64 64
-1.5073794 -3.3343146 0.67731589 79 79 79
-1.5102583 -3.3353677 0.71826279 62 62 62
-0.46243441 -3.2138944 2.0579059 214 214 214
-0.66821069 -3.2169821 1.4094075 121 121 121
-1.5487754 -3.311379 0.69980633 60 60 60
-1.6137261 -3.2714908 0.49693087 63 63 63
-1.5198078 -3.3216774 0.5463255 68 68 68
-1.587817 -3.3668666 0.65964842 73 73 73
-1.4304079 -3.3236725 0.72168732 72 72 72
-0.4936603 -3.2064788 1.6179076 150 150 150
-1.4361777 -3.2965755 0.7355302 72 72 72
-0.22529684 -3.21506 1.6320618 204 204 204
-1.1611958 -2.3878329 1.842904 203 203 203
-0.73947942 -3.2865026 1.2755027 136 136 136
-0.80736095 -3.3883741 1.6514595 116 116 116
-1.5801834 -3.3003197 0.65535092 88 88 88
0.66591418 -3.450706 1.8548552 170 170 170
-0.45895815 -3.1837981 1.420967 200 200 200
-0.49318075 -3.2013872 1.3914572 174 174 174
-1.5312868 -3.3826225 0.51970816 77 77 77
-0.27531838 -3.2330749 1.8728652 185 185 185
-0.87355793 -3.2385395 1.5047349 146 146 146
-1.6596721 -3.2861853 0.67070395 93 93 93
-0.24172062 -3.204864 1.9255304 205 205 205
-1.2857319 -3.2890048 0.74798518 110 110 110
-1.6178672 -3.29849 0.73338366 153 153 153
-2.6611228 -2.9855726 1.3866718 88 88 88
-2.6191847 -2.9665284 1.3943304 132 132 132
-1.6401125 -3.2887509 0.4845337 56 56 56
-1.5091726 -3.2658386 0.69106668 143 143 143
-1.426365 -3.3089755 0.56604785 83 83 83
-1.3235472 -3.3209319 0.73668391 88 88 88
-0.76663816 -3.2561786 1.910405 171 171 171
-0.8210566 -3.3038802 1.4729333 106 106 106
-0.74423301 -3.2835338 1.470873 132 132 132
-1.6168356 -3.3096828 0.70099443 160 160 160
-1.3047144 -3.3047745 0.72388524 67 67 67
-1.584363 -3.270601 0.7646262 159 159 159
-2.5479352 -2.9759047 0.62687844 43 43 43
-1.2811717 -3.2983022 0.63890553 49 49 49
-0.77756125 -3.2521923 1.8751357 183 183 183
-1.4983176 -3.2775011 0.70794153 151 151 151
-1.6528015 -3.2646234 1.0225216 161 161 161
-1.6039064 -3.2690179 0.67734331 88 88 88
-2.4699094 -2.9614823 1.1584107 47 47 47
-2.6407559 -2.9562118 0.7105844 30 30 30
-2.473258 -2.968729 0.4541482 47 47 47
-1.4471958 -3.287648 0.70601857 87 87 87
-1.4972761 -3.2809811 0.57335049 67 67 67
-1.2952679 -3.2585301 0.72652406 53 53 53
-2.4691942 -2.9657283 0.71869278 34 34 34
-1.6697392 -3.296488 0.69890231 142 142 142
-1.7063717 -3.3015406 0.65259153 110 110 110
-1.4482703 -3.2801476 0.70956814 81 81 81
-1.5277647 -3.286489 0.68013859 172 172 172
-2.3150864 -2.8628769 0.26767376 97 97 97
-0.81646436 -3.167124 1.8555959 172 172 172
-0.91044658 -3.2339444 1.4019018 159 159 159
-0.8870393 -3.3099275 1.4392803 93 93 93
-1.6072304 -3.2818875 0.70388514 116 116 116
-1.6920171 -3.3133171 0.64339566 175 175 175
-1.4836652 -3.2982898 0.67259544 98 98 98
-1.5684233 -3.2831268 0.70166939 168 168 168
-1.5731374 -3.3042531 0.65670496 98 98 98
-1.6466931 -3.2717121 0.50528443 97 97 97
-1.6009797 -3.2755282 0.56491965 108 108 108
-2.6215551 -2.8888366 0.53577739 39 39 39
-0.98146307 -3.3001602 1.3850725 78 78 78
-1.6448206 -3.297744 0.57017952 90 90 90
-1.3185382 -3.3280909 0.7710427 183 183 183
-1.5250539 -3.3128464 0.73566097 160 160 160
-1.5932642 -3.3260098 0.47303972 96 96 96
-1.5322628 -3.2746665 0.71633422 111 111 111
-2.6171474 -2.9623113 0.43746492 46 46 46
-1.6362187 -3.2442646 0.60153788 94 94 94
-2.3395197 -2.2124612 0.97380382 45 45 45
-2.4709308 -2.9221454 0.46732619 53 53 53
-1.327649 -3.2973211 0.62114692 116 116 116
-3.1554 -2.8549113 0.27123687 151 151 151
-2.2330704 -3.3455153 1.0538329 122 122 122
-2.5729172 -3.2912407 1.3569955 53 53 53
-2.9544733 -3.0078919 1.4096444 162 162 162
-1.940964 -3.3557365 0.98377168 162 162 162
-2.4419923 -2.8438873 0.98912442 67 67 67
-3.1876478 -3.3625693 1.0632129 51 51 51
-2.822058 -2.9973462 0.33768097 52 52 52
-1.639937 -3.3405821 0.96989506 122 122 122
-1.8037931 -2.6846337 0.98093081 141 141 141
-2.3906105 -2.5747495 1.3616966 36 36 36
-2.725467 -2.9668949 1.370321 101 101 101
-1.4301596 -3.3383727 0.69171822 82 82 82
-1.5346951 -3.3653371 0.73377693 94 94 94
-1.5868531 -3.3858926 0.72843146 111 111 111
-1.4740756 -3.3827181 0.67832088 171 171 171
-1.6242733 -3.4654388 0.85765731 119 119 119
-1.4770615 -3.2437758 0.67753172 113 113 113
-1.6782694 -3.331228 0.69154441 69 69 69
-1.6603618 -3.4173808 0.61775953 112 112 112
-1.5019547 -3.323868 0.69166744 78 78 78
-1.546255 -3.3868871 0.6912204 138 138 138
-1.4973058 -3.4132316 0.70618892 80 80 80
-1.297017 -3.4565487 0.70964444 106 106 106
-1.6202641 -3.2783377 0.73756206 203 203 203
-1.5525039 -3.4392295 0.70155531 63 63 63
-1.2819999 -3.4002023 0.69688725 59 59 59
-2.6481862 -3.0114486 0.95307684 75 75 75
-2.4322886 -2.7288759 1.0765538 75 75 75
-2.572324 -2.739413 1.0949199 63 63 63
-2.5108583 -3.1183527 0.90224695 85 85 85
-2.3792746 -2.8768885 0.86686653 59 59 59
-2.4686759 -2.9660859 0.85584515 70 70 70
-2.3469598 -2.972908 0.796332 61 61 61
-2.3381832 -2.9328442 1.0105736 62 62 62
-2.4028649 -2.9196429 0.73701221 58 58 58
-2.4926257 -2.7361829 0.8066082 53 53 53
-2.9936891 -2.992703 1.1622559 123 123 123
-3.1533151 -2.7971461 1.0534335 114 114 114
-1.4706405 -3.3140826 0.55743057 91 91 91
-1.7714858 -3.2371576 0.58452719 90 90 90
-1.6198021 -3.5029244 0.49919674 148 148 148
-3.041477 -2.7823482 0.17345141 76 76 76
-3.0379603 -2.6984808 0.17196284 26 26 26
-3.1849406 -2.4939723 0.24523161 162 162 162
-2.3148506 -2.9790154 1.358288 77 77 77
-3.1439986 -3.7779942 1.4154409 59 59 59
-2.9627182 -3.4186904 1.3919007 166 166 166
-3.1832237 -3.451606 1.4216604 172 172 172
-2.9480331 -3.5110176 1.3894236 59 59 59
-3.0473068 -3.069963 1.269215 94 94 94
-2.7936602 -3.4992425 1.3981456 138 138 138
-2.3654511 -2.7674325 1.3525584 61 61 61
-2.8896585 -3.0775833 1.3147887 44 44 44
-4.2454219 -2.9018314 1.7918396 95 95 95
-1.6541797 -3.2429051 0.75374061 71 71 71
-1.8522795 -3.2795529 0.72873712 83 83 83
-1.7395773 -3.2505329 0.71793133 185 185 185
-1.7987289 -3.2317193 0.7128489 82 82 82
-1.5153909 -3.2257509 0.67608082 97 97 97
-1.5322337 -3.2629158 0.74458158 175 175 175
-1.575892 -3.3123894 0.69459164 82 82 82
-1.6599444 -3.3776319 0.6478951 112 112 112
-1.5591691 -3.2991979 0.56439257 79 79 79
-1.6193496 -3.3037593 0.69621694 204 204 204
-1.8027642 -3.3536921 0.72184908 83 83 83
-1.6933324 -3.3030176 0.88581365 126 126 126
-1.326267 -3.0935278 0.76092315 52 52 52
-1.7403178 -3.251292 0.8898406 121 121 121
-1.4670359 -3.2583416 0.66375762 114 114 114
-1.5248926 -3.2677727 0.89114869 125 125 125
-1.2965766 -3.324887 0.66913891 38 38 38
-2.4772573 -2.9429245 0.70183212 82 82 82
-2.5385826 -2.9323699 0.63575989 59 59 59
-2.5540717 -2.9746969 0.83833939 59 59 59
-2.5751064 -3.4664009 1.1784432 63 63 63
-2.3346984 -2.906287 0.75806803 57 57 57
-4.1813393 -1.6216211 1.0806667 67 67 67
-2.7373331 -1.1687404 0.7642445 78 78 78
-2.7478118 -0.97032803 0.73900336 51 51 51
-2.714329 -3.1963649 1.3964267 138 138 138
-2.8173878 -2.9736893 1.3903276 166 166 166
-2.7840714 -2.9795647 1.3858408 59 59 59
-3.0378604 -3.1334753 1.4112949 133 133 133
-4.2716894 -2.9302614 1.7983209 95 95 95
-1.697052 -3.2755485 0.8876605 126 126 126
-2.4662247 -2.9302673 1.1598701 72 72 72
-2.5448127 -3.2910106 1.0269459 63 63 63
-2.6099305 -2.8811219 0.79233551 85 85 85
-3.8526244 -3.0083282 0.99627429 78 78 78
-1.6814921 -3.2731953 0.44347194 176 176 176
-3.0171962 -3.0318191 1.23638 38 38 38
-2.7805476 -3.7162712 1.3771185 116 116 116
-3.148545 -3.1470582 1.36358 66 66 66
-3.1110201 -3.0733402 1.3793 98 98 98
-3.3452091 -3.7486129 1.2373904 133 133 133
-3.9364109 -2.4521718 1.7235388 151 151 151
-1.6443843 -3.2799053 0.9973889 131 131 131
-1.6962488 -4.2037659 0.44291964 134 134 134
-1.942162 -3.405009 0.97849691 160 160 160
-1.8194636 -3.2268875 0.59266144 100 100 100
-1.6984802 -3.0842576 0.92156303 130 130 130
-2.4777474 -2.9347126 0.62250602 66 66 66
-2.671334 -2.9717405 1.0629365 17 17 17
-2.448822 -2.8772693 0.81814015 65 65 65
-3.302727 -3.5541043 0.64298278 38 38 38
-2.5659592 -3.0267313 0.78048199 59 59 59
-3.6288066 -2.8100131 1.0168613 69 69 69
-3.726655 -3.0307627 0.99734449 92 92 92
-4.2339301 -1.3749762 1.0788046 184 184 184
-4.2999854 -1.4061842 0.96054024 147 147 147
-4.1941519 -1.6906537 1.0543442 83 83 83
-1.2749367 -3.1826108 0.032030206 33 33 33
-1.2194593 -3.3266916 -0.050095756 144 144 144
-1.353511 -3.129535 0.10188756 183 183 183
-1.2754691 -3.1966481 0.090263464 101 101 101
-0.97913212 -2.9439104 0.16180919 84 84 84
-1.5239737 -3.2457759 0.47659537 141 141 141
-1.0054425 -2.9897308 0.10341398 21 21 21
-2.9712746 -3.0321689 0.21173565 67 67 67
-3.0016038 -2.7710233 0.166454 11 11 11
-2.3376052 -2.8419023 0.2602047 46 46 46
-2.9480422 -2.8819733 0.094945528 50 50 50
-2.6935201 -1.1678543 0.73782623 29 29 29
-2.2719064 -2.7732968 1.3053391 122 122 122
-2.5777459 -3.0833092 1.0452322 58 58 58
-2.4191899 -2.8905239 0.64722598 64 64 64
-2.4864748 -3.0133145 1.1184121 70 70 70
-3.0372906 -2.5833552 0.12838827 132 132 132
-2.7498341 -3.0292776 1.3904426 105 105 105
-2.8038375 -2.768754 1.4 106 106 106
-2.9780717 -2.8906634 1.2736461 103 103 103
-2.6695337 -2.8401091 0.64157343 80 80 80
-2.6965868 -2.8785689 0.64172202 30 30 30
-2.6837616 -2.9085143 0.45582721 80 80 80
-3.0180216 -2.8418269 1.3120929 67 67 67
-2.5877087 -2.6873319 1.3687615 70 70 70
-4.2194052 -2.7165668 1.7670434 112 112 112
-1.8509936 -3.3442025 0.71674067 80 80 80
-1.4284825 -3.3147459 0.7186684 69 69 69
-1.822843 -3.4747074 0.51656795 106 106 106
-1.3282708 -3.3137636 0.63723797 90 90 90
-2.8084154 -3.0543568 1.073984 20 20 20
-2.6238644 -3.2890658 0.79221702 51 51 51
-2.6808007 -2.8946974 0.58575559 73 73 73
-2.6998351 -0.91600019 0.77184278 84 84 84
-1.510821 -3.3224699 0.56584728 76 76 76
-2.7298799 -3.1317937 1.0960726 106 106 106
-2.68576 -1.1396009 1.0476381 20 20 20
-1.3842595 -2.8959231 0.21296291 134 134 134
-2.3394842 -3.3078392 0.041740935 16 16 16
-3.2559512 -2.6513171 0.14178155 173 173 173
-2.7123291 -0.92016691 0.65315652 213 213 213
-2.874999 -2.8647668 1.4120605 162 162 162
-2.9098284 -2.8649492 1.4133525 182 182 182
-2.7212996 -3.028986 0.83534569 66 66 66
-4.2940726 -1.4224643 1.0918764 255 255 255
-4.2463179 -1.5769947 1.1021532 124 124 124
-2.3619452 -2.7845974 0.072378017 30 30 30
-2.7202122 -0.94685316 0.65772057 167 167 167
-2.7900009 -0.8946054 0.67196858 104 104 104
-2.9937255 -2.9891908 1.3134403 19 19 19
-3.1120243 -3.1909885 1.3971663 43 43 43
-1.7727605 -3.1479743 0.59428281 100 100 100
-2.8550448 -2.9921679 0.74827641 47 47 47
-2.7309892 -1.0668776 1.0053089 40 40 40
-4.2677574 -1.6283045 1.0994538 185 185 185
-2.780133 -0.87612516 0.68500626 96 96 96
-2.7540424 -0.92060745 0.66253144 110 110 110
-1.4301795 -3.2714107 0.57276368 84 84 84
-2.7042155 -0.90830863 0.67391521 49 49 49
-4.2540727 -2.7408335 1.7260811 109 109 109
-2.8763199 -3.0630279 0.55925888 56 56 56
-2.7666485 -3.1970315 0.67595142 70 70 70
-3.0667365 -1.0465429 0.79510754 178 178 178
-4.3550758 -1.4644177 0.98557639 92 92 92
-4.2460732 -1.696311 0.99423045 145 145 145
-4.2660751 -1.678564 1.0357971 41 41 41
-4.3575201 -1.4668576 0.90504074 135 135 135
-4.2745795 -1.3926625 1.1080846 243 243 243
-4.3253555 -1.4423144 1.1309551 162 162 162
-4.266212 -1.6740787 0.96049112 44 44 44
-4.3243651 -1.7607847 1.0080507 116 116 116
-4.3452811 -1.7544996 1.064984 66 66 66
-4.3555818 -1.4507637 0.95054764 144 144 144
-4.2861457 -1.6952273 0.99877119 53 53 53
-4.2665272 -1.4491596 0.98443127 180 180 180
-2.3495219 -2.7190838 0.14688538 14 14 14
-2.7005758 -1.1325706 0.73057652 156 156 156
-2.7372184 -0.96334523 0.71438169 82 82 82
-2.7839077 -0.9973892 0.73147148 77 77 77
-2.7854187 -0.86708081 0.66807395 94 94 94
-2.7072091 -0.97415942 0.74557406 69 69 69
-2.8900716 -0.8995766 0.65307605 84 84 84
-3.0057907 -0.76225334 -0.10572978 87 87 87
-2.6990447 -1.3397375 0.99612433 124 124 124
-4.1892104 -1.6038617 0.97386956 44 44 44
-2.5714724 -1.1924014 0.70742995 44 44 44
-2.8092201 -0.86312169 0.67851001 101 101 101
-2.7347157 -1.0664673 0.72423965 84 84 84
-2.7284455 -0.97168863 0.66811246 91 91 91
-2.9692702 -0.70558989 0.62864673 176 176 176
-2.5058227 -3.1212094 0.90914947 65 65 65
-3.1472645 -3.2522793 1.2835064 41 41 41
