ply
format ascii 1.0
comment PCL generated
element vertex 1096
property float x
property float y
property float z
property uchar red
property uchar green
property uchar blue
element camera 0
property float view_px
property float view_py
property float view_pz
property float x_axisx
property float x_axisy
property float x_axisz
property float y_axisx
property float y_axisy
property float y_axisz
property float z_axisx
property float z_axisy
property float z_axisz
property float focal
property float scalex
property float scaley
property float centerx
property float centery
property int viewportx
property int viewporty
property float k1
property float k2
end_header
-0.35203692 1.8495718 0.92344892 186 186 186
-0.43545428 1.2062039 0.9123984 201 201 201
-0.24533746 1.273741 0.9101271 213 213 213
-0.45227438 1.1428251 0.91283798 168 168 168
-0.31763354 1.3341058 0.92128521 179 179 179
-0.18783304 1.1891812 0.89228463 198 198 198
-0.18083502 1.353987 0.90894204 204 204 204
-0.24277639 1.2057668 0.8909024 172 172 172
-0.29258591 1.1208996 0.89806861 186 186 186
-0.42557707 1.0986184 0.90770417 190 190 190
-0.038189139 1.6119032 0.91323096 190 190 190
-0.10448101 1.7418245 0.91335744 172 172 172
-0.12425572 1.6415547 0.91222811 157 157 157
-0.040378075 1.7453516 0.91773188 162 162 162
-0.026860682 1.5990142 0.89398211 168 168 168
-0.1894467 1.3881893 0.91387856 165 165 165
-0.49930257 1.4071901 0.69520688 190 190 190
-0.15553796 1.5569092 0.92358524 207 207 207
-0.23918048 1.6921601 0.91942769 155 155 155
-0.23200437 1.4955778 0.91159499 204 204 204
-0.094549842 1.5798259 0.91236669 190 190 190
-0.29623801 1.4303567 0.9177646 190 190 190
-0.21097261 1.6636425 0.92375964 201 201 201
-0.14089543 1.7055137 0.9033373 172 172 172
-0.57577264 1.3928292 0.71749383 165 165 165
-0.24835825 1.3834486 0.91405785 201 201 201
-0.34343168 1.4150254 0.92912334 175 175 175
-0.13847202 1.4550411 0.91314656 175 175 175
0.17168787 2.0331092 0.88902307 157 157 157
-0.018448308 1.7838569 0.91142869 155 155 155
0.033425156 1.7573733 0.93236041 201 201 201
0.19412698 1.9732721 0.91673875 162 162 162
-0.12029741 1.8547028 0.91138542 157 157 157
0.20294467 2.082706 0.85612261 137 137 137
0.11648531 2.1082075 0.91657674 147 147 147
0.18692887 2.3460009 0.70708013 122 122 122
-4.0041485 -1.5299873 1.0676664 40 40 40
-4.0670309 -0.71862835 1.612434 203 203 203
-3.7095857 -0.39676958 0.81336832 152 152 152
-2.6907089 1.3268392 0.57272667 50 50 50
-4.2334952 2.7932036 0.72561198 142 142 142
-2.2710385 -0.082697444 0.093626313 131 131 131
-2.6643159 0.54750454 0.30669183 73 73 73
-2.7052889 1.2737106 0.35700721 44 44 44
-0.93979537 1.3665483 0.92962545 136 136 136
-0.94632006 1.1841919 0.59504968 194 194 194
-0.73790902 1.6984025 0.86613584 172 172 172
-2.696651 0.9622578 0.28453445 42 42 42
-0.40122736 2.0363019 0.92247099 83 83 83
-0.31684229 1.8228263 0.92394096 200 200 200
-0.19784941 2.012711 0.9010368 197 197 197
-0.36354658 1.8186535 0.92717767 183 183 183
-0.4976449 1.0158842 0.92631012 179 179 179
-0.086283304 1.6204593 0.91618323 203 203 203
-0.16386876 1.6298441 0.91211152 183 183 183
-0.11813736 1.5233727 0.91434711 169 169 169
-0.11199149 1.5616013 0.90717173 183 183 183
-0.37826681 1.3378556 0.91990435 190 190 190
-0.20893893 1.4604137 0.90316373 158 158 158
-0.15103014 1.3930063 0.90853268 186 186 186
-0.18729877 1.5149763 0.91530704 183 183 183
-0.38997334 1.5257434 0.83006674 203 203 203
-0.17061192 1.9193345 0.92226589 186 186 186
0.0061213798 1.7330456 0.92276353 197 197 197
-0.16361947 1.7511728 0.92771852 190 190 190
-0.0028620393 1.7113166 0.91728467 200 200 200
0.01976865 1.8162583 0.90290481 175 175 175
-4.1536441 3.8728135 1.6728239 152 152 152
-3.8594372 0.86614794 1.2576628 182 182 182
-2.6894844 -0.91236055 0.8877542 86 86 86
-2.568774 -0.75280941 0.71835113 76 76 76
-2.4957206 -0.89673001 0.71640378 93 93 93
-0.6377725 0.95505142 0.91299909 185 185 185
-2.6202421 0.085689381 0.16831523 80 80 80
-2.3124576 0.087668151 0.30103952 47 47 47
-2.7151148 -0.94209331 0.59521925 70 70 70
-0.57556683 1.6788675 0.86986166 189 189 189
-0.62340641 1.387621 0.91861343 193 193 193
-0.70122504 1.1749941 0.92986292 189 189 189
-0.384563 1.5597086 0.93326253 175 175 175
-0.26576331 1.9832933 0.90435261 211 211 211
-0.46185938 1.7970731 0.91836905 169 169 169
-0.45074829 1.1834053 0.92747062 149 149 149
-0.39273009 1.3927178 0.92420065 161 161 161
-0.16690041 1.5983527 0.91581076 193 193 193
-0.3733561 1.5260671 0.76523167 182 182 182
-0.089134008 1.7237152 0.90219676 163 163 163
-0.21642949 1.7634523 0.91487128 172 172 172
-4.5794888 -0.27468762 2.0794129 153 153 153
-3.8458564 0.23541236 1.0145617 171 171 171
-2.9970038 0.010139286 0.84127927 192 192 192
-3.0265598 0.52391547 1.0283865 143 143 143
-4.0738297 -1.4338022 0.98607063 113 113 113
-2.8783329 1.8524071 0.3692348 36 36 36
-3.6447845 1.9700941 0.65853035 168 168 168
-3.3950891 2.8227019 1.0150909 185 185 185
-2.7243979 -0.13934089 0.0089248968 106 106 106
-0.69817406 1.0538336 0.93229818 163 163 163
-2.7617772 -0.18738863 0.82725674 198 198 198
-2.7499855 -0.47639158 0.80433571 156 156 156
-2.8474183 0.67912239 0.20127398 55 55 55
-2.8978255 0.6132859 0.27386844 58 58 58
-2.721277 0.64297938 0.16131872 46 46 46
-0.64903116 1.6105911 0.9552123 209 209 209
-0.5446434 1.5810033 0.8619777 166 166 166
-0.44176048 1.6984568 0.94863981 166 166 166
-0.408663 1.7976325 0.9259131 188 188 188
-0.18878673 2.1989272 0.85429615 68 68 68
-0.27056721 1.484071 0.9277606 168 168 168
-0.33922595 1.3526753 0.85943139 188 188 188
-0.071188085 1.8223097 0.90641916 175 175 175
-0.1418688 1.6355053 0.9653523 188 188 188
0.090741001 2.0460374 0.9327178 144 144 144
-3.8430388 -0.11977125 1.0291249 87 87 87
-5.5059366 -0.87789828 1.3344312 171 171 171
-3.1304076 0.029577587 0.8578698 199 199 199
-3.0940104 0.16900726 0.86269152 193 193 193
-2.7719433 0.10877275 1.1161971 156 156 156
-2.9641762 -0.13410024 1.437589 183 183 183
-4.2247396 0.59198087 1.4333774 202 202 202
-3.7648077 2.0756984 1.0960598 217 217 217
-3.714792 3.2827537 0.70127416 44 44 44
-2.6177034 -1.1739045 0.64709949 35 35 35
-2.5410359 0.38606647 0.51619637 55 55 55
-2.5186508 0.40451291 0.22614729 78 78 78
-2.7728598 -1.2528125 0.68993735 67 67 67
-2.4521518 -0.31295398 0.15945935 112 112 112
-2.8272538 -0.22533086 0.68655926 207 207 207
-2.5211134 0.304353 0.2198922 80 80 80
-2.5744605 -0.67530543 0.48465836 32 32 32
-2.7349846 0.86133313 0.1411618 87 87 87
-0.75654405 1.6639744 0.93871278 165 165 165
-1.0654745 1.0155561 0.74980199 174 174 174
-0.67102993 1.3814155 0.93013322 190 190 190
-0.41008362 1.6596211 0.93310595 143 143 143
-1.7597253 -1.1248412 -0.099102624 85 85 85
-4.6055303 0.18053272 1.824151 255 255 255
-3.0983217 0.47622579 2.6779625 255 255 255
-4.1812377 0.067629986 1.3197868 204 204 204
-4.0811458 0.94829655 1.0024637 65 65 65
-3.6465516 2.8390875 0.73734432 108 108 108
-3.700043 3.2704294 0.32274252 40 40 40
-2.5945141 -1.3168707 0.65018731 101 101 101
-2.5811436 -0.28793314 0.20346498 77 77 77
-3.2312641 -1.7194601 0.67594355 60 60 60
-2.7700503 1.4366865 0.31241733 34 34 34
-2.763268 1.3007038 0.1081587 105 105 105
-1.6753733 2.5757227 0.026647087 13 13 13
-0.71131712 1.7424201 0.94694501 172 172 172
-0.60933292 1.8450561 0.92411107 166 166 166
-0.80525011 2.9234419 0.14564508 75 75 75
-0.34681633 1.4449553 0.93975478 172 172 172
-0.29026577 1.4703184 0.93263245 178 178 178
-0.10616981 1.9143655 0.91618437 184 184 184
-4.5592875 -1.318207 2.5342772 235 235 235
-4.3828955 0.25794631 1.5971304 106 106 106
-2.9842117 0.4769071 1.0669676 168 168 168
-2.9028983 0.1642714 0.9844389 163 163 163
-4.4695177 -1.3744495 1.7358271 204 204 204
-3.1804895 1.4900798 0.76107812 207 207 207
-2.5561204 3.1847305 0.065138392 43 43 43
-2.5678201 0.21081309 0.091692083 115 115 115
-2.4537704 0.22254406 0.46959734 92 92 92
-0.57947427 1.1965849 0.93129796 168 168 168
-0.63891912 1.0053377 0.95541006 165 165 165
-0.65426105 1.4881402 0.88417858 165 165 165
-0.75865352 1.1830256 0.94129354 195 195 195
-0.37168708 1.7114526 0.93772984 197 197 197
-0.52376789 1.1940022 0.93326092 156 156 156
-3.9305561 -0.39075139 2.0938725 255 255 255
-4.2265301 1.4386655 1.5617828 174 174 174
-2.5884626 4.4460282 1.0656044 177 177 177
-3.4680805 4.446023 1.2977096 30 30 30
-4.2660866 -0.19335389 1.2048632 158 158 158
-3.6603076 1.4640362 1.2563874 53 53 53
-2.9095497 1.5914067 0.65934718 230 230 230
-3.2711475 0.89585137 1.1834236 152 152 152
-2.7672994 2.0746205 0.49293846 65 65 65
-0.74705511 1.3388944 0.94593406 183 183 183
-2.7325716 1.0457689 0.16245848 89 89 89
-0.64732027 1.486454 0.94025815 174 174 174
-0.783499 1.4211162 0.9490059 174 174 174
-2.8497102 1.6154668 0.32922912 94 94 94
-0.25642148 1.861151 0.93843883 203 203 203
-2.1078265 3.3050103 0.001474078 59 59 59
-0.28658035 2.0569446 0.90962577 150 150 150
-2.3448787 -0.51665074 0.11564635 56 56 56
-2.0519662 -0.23941512 0.16739506 78 78 78
-0.46139401 1.0813837 0.92414951 163 163 163
-5.5036569 1.2110234 1.978021 232 232 232
-3.9189813 1.4315734 1.7358136 131 131 131
-5.4380646 3.7783821 1.1603037 203 203 203
-3.0162513 5.0687189 1.1841899 220 220 220
-2.8633652 0.35854465 0.98887748 176 176 176
-4.0298033 -1.261464 1.014945 95 95 95
-3.787102 0.63135993 1.0879339 162 162 162
-4.0345173 1.2383258 0.8716011 158 158 158
-3.4225421 2.8024845 0.91202575 86 86 86
-2.4975724 -0.41231769 0.63779485 40 40 40
-3.2305133 0.11476949 0.58226049 230 230 230
-2.5726771 -0.78968245 0.79927522 34 34 34
-2.9823344 0.070065357 0.80761206 193 193 193
-2.3512847 -0.09662433 1.0706083 162 162 162
-0.50228679 1.7581978 0.94551551 155 155 155
-0.64006138 1.8924712 0.92828053 158 158 158
-0.59481841 1.4206083 0.84363252 200 200 200
-0.21742785 1.9075346 0.9228819 165 165 165
-0.72197592 1.2224752 2.1599629 255 255 255
-0.52861959 1.0704377 2.1919572 190 190 190
-4.4729648 -1.4109374 2.6286771 199 199 199
-3.3073275 1.8515456 1.7848977 234 234 234
-3.922369 1.2459419 1.673413 212 212 212
-4.2842312 0.047049988 1.9021734 199 199 199
-3.1249468 -0.3584047 1.1101458 146 146 146
-3.6534088 1.3994348 1.3461096 26 26 26
-4.2935324 0.63599855 1.2250714 169 169 169
-2.4160733 -0.14681575 0.67587614 113 113 113
-0.84904426 1.5680908 0.95554656 190 190 190
-0.38946435 2.0153491 0.89730775 146 146 146
-0.34365168 1.9066746 0.94779652 177 177 177
-2.86462 -0.45665431 -0.1159277 57 57 57
-0.3326979 1.1450031 0.9536171 174 174 174
-0.59823406 1.1107557 0.93824792 185 185 185
-0.5140031 1.3256702 0.92851877 161 161 161
-1.0650957 1.1237506 2.1552496 233 233 233
-5.3592916 3.9009292 1.4064437 193 193 193
-3.1279643 4.9555283 1.3121568 128 128 128
-2.472033 4.7156096 1.2064971 55 55 55
-3.8827412 -1.1045088 1.1312643 186 186 186
-4.121377 -0.43684995 1.6197096 198 198 198
-3.26263 1.7036512 0.79610658 156 156 156
-4.5955167 0.99253309 1.3583597 172 172 172
-3.3472469 0.85670632 1.0269895 149 149 149
-3.3602211 3.3486114 0.97032285 92 92 92
-4.2362771 3.3036594 0.87878764 85 85 85
-2.6306686 1.0707772 0.080286257 105 105 105
-0.54077214 1.8510253 0.92493957 167 167 167
-0.51941156 1.9707898 0.90838671 154 154 154
-2.4758854 -0.49063978 0.12977737 41 41 41
-2.5371714 -0.098966703 0.044263002 64 64 64
-2.1188033 -0.78924817 -0.0028430268 60 60 60
-1.798174 -0.23422906 0.13696909 72 72 72
-0.21486972 1.4244931 0.92323482 158 158 158
-0.16077501 1.8436198 0.90872705 172 172 172
-3.1596301 1.4388977 2.0739057 255 255 255
-3.6769757 4.4751425 2.3487089 24 24 24
-2.8576701 4.8051195 2.2860277 117 117 117
-3.9666166 -0.28001344 2.013355 147 147 147
-5.36415 -0.23813669 0.92058575 68 68 68
-2.4443884 0.81836152 1.3490591 168 168 168
-1.1650518 1.325672 0.776501 174 174 174
-1.6565233 2.6603966 0.071325772 68 68 68
-2.0062232 2.4138446 0.038523372 59 59 59
-2.1894627 0.066588968 0.089248173 84 84 84
-2.3505297 -0.68755662 0.05972546 64 64 64
-2.8903277 -0.17184015 -0.1658752 55 55 55
-1.7938619 -0.11960007 -0.031981114 84 84 84
-1.7521563 -0.30697772 0.098610811 78 78 78
-1.7206414 -0.053745493 0.27407986 80 80 80
-0.30043489 1.7183053 0.92718995 171 171 171
-0.2947877 1.8639857 0.94741893 171 171 171
-0.19679675 1.9549389 0.93179125 150 150 150
-3.2148571 -0.083355375 2.3193347 233 233 233
-1.0482469 1.1074818 2.0160265 255 255 255
-2.5627818 1.8716245 1.6266898 213 213 213
-2.6742518 4.452733 2.2934425 74 74 74
-2.3621435 4.5172811 2.2674308 74 74 74
-2.2860637 4.7289724 2.1857762 127 127 127
-0.8747105 1.5103754 0.95421165 197 197 197
-3.0384579 0.59578508 0.70205343 181 181 181
-2.5061021 2.3153765 0.017684039 63 63 63
-2.4903607 -0.37602657 0.25025505 102 102 102
-1.988103 -0.035040803 0.079278402 89 89 89
-1.6439135 -0.61307591 -0.16762328 81 81 81
-2.5618355 -1.1552296 -0.097401388 64 64 64
-0.1734377 1.9512979 0.90832686 181 181 181
-3.652421 4.4456806 2.43626 29 29 29
-4.2704086 4.7041764 1.7547058 34 34 34
-2.1642318 4.5419664 2.3276966 74 74 74
-2.5232391 4.4965491 2.3403423 88 88 88
-5.4488173 -1.4663398 0.91602391 174 174 174
-3.5425072 0.24356137 1.0464778 158 158 158
-4.2160034 -1.1493818 1.2508274 176 176 176
-2.9569221 0.14945653 1.3064089 81 81 81
-4.2106385 0.21755922 1.3939174 124 124 124
-4.0358243 0.59577823 1.7841517 255 255 255
-2.5518134 -0.65515423 0.62677288 14 14 14
-2.6444147 0.15802933 1.0361651 166 166 166
-2.0148201 2.969969 0.0052140313 74 74 74
-2.318733 2.1413789 0.039940353 86 86 86
-1.9946078 2.810504 0.13704455 72 72 72
-1.9728936 3.0909822 0.035657819 72 72 72
-1.9724451 2.5227454 0.028995689 84 84 84
-2.5059721 -0.60638493 0.26599187 47 47 47
-0.2511175 1.4820373 0.88847375 185 185 185
-0.22212477 2.0385396 0.90379858 169 169 169
-0.69991338 2.78742 0.041207489 68 68 68
-1.1821636 2.8537636 0.069155149 84 84 84
-4.7402391 4.3787298 2.7496746 167 167 167
-3.6597264 4.4249849 2.5638373 105 105 105
-3.6268311 4.4568458 2.1218028 18 18 18
-2.663027 4.6269073 2.1016068 157 157 157
-2.5096295 4.4800549 2.415272 46 46 46
-2.9648612 0.78940791 1.1576595 199 199 199
-3.4755859 3.3740039 0.55873513 20 20 20
-2.4748521 4.470295 1.1409734 194 194 194
-2.6931894 -0.027259238 0.66688931 229 229 229
-2.7919941 -0.092874959 1.0565881 157 157 157
-2.9905012 0.57764572 0.68213218 182 182 182
-2.6845551 1.0097774 0.12716848 15 15 15
-2.2191734 2.350775 0.018376287 88 88 88
-2.2790177 2.2554328 0.034171041 93 93 93
-1.9699078 3.5872016 0.099339716 64 64 64
-2.2956517 -0.386985 0.11767214 86 86 86
-2.0128357 -0.3395007 0.15295839 80 80 80
-2.0008068 -0.36447912 0.073009245 88 88 88
-0.60597533 0.82975715 0.79012507 95 95 95
-0.35738823 2.010144 0.90546352 194 194 194
-1.2247484 3.3519211 0.060487267 71 71 71
-1.0774187 3.1998525 0.018864449 75 75 75
-4.8184047 4.7068448 2.5528717 173 173 173
-6.2335806 4.8709259 2.0569711 201 201 201
-3.7126942 4.5355754 2.6071086 71 71 71
-2.6347475 4.5888782 1.8775982 178 178 178
-2.8937557 4.5027475 2.3314753 41 41 41
-2.7434106 4.4176388 1.6784605 71 71 71
-4.0820985 0.48268503 1.3960146 102 102 102
-2.8117023 1.1652827 0.87169129 201 201 201
-3.9185674 4.0557804 1.3453251 56 56 56
-0.8748185 1.3182755 0.9468717 186 186 186
-3.3474128 2.8182678 0.24458128 107 107 107
-0.77598304 1.7767247 0.93245947 186 186 186
-2.0524168 3.1980207 0.11410283 76 76 76
-1.9640118 2.6536348 0.015083904 79 79 79
-2.7569366 2.1087897 0.013764317 74 74 74
-2.5535812 2.3976376 -0.00027752362 82 82 82
-2.1265912 2.2056608 0.031970855 96 96 96
-2.6853147 3.5102322 0.035728808 67 67 67
-2.5183792 3.9846897 0.0036752776 51 51 51
-1.3219529 4.5833693 0.11895012 25 25 25
-0.75704765 0.65628135 0.47430366 191 191 191
-1.2339202 0.16513439 0.064693503 76 76 76
-1.2009145 0.81914532 0.71970147 93 93 93
-2.2004757 -0.65413505 0.04412907 69 69 69
-1.271558 -0.17658138 -0.043687705 105 105 105
-1.4094272 -0.091698475 0.080697171 98 98 98
-0.70180237 1.4637845 0.93052381 183 183 183
-0.69913715 1.2859696 0.94049716 166 166 166
-0.23328501 2.0133083 0.92338914 159 159 159
-0.12364621 2.027679 0.92365235 181 181 181
-0.17718622 1.9996721 0.91829896 166 166 166
-0.30410594 1.8003697 0.84161156 193 193 193
-1.4944208 3.734251 -0.23296368 65 65 65
-0.7241028 2.9659503 0.081673436 71 71 71
-0.68155783 3.115561 0.056392964 71 71 71
-1.0122639 2.9340971 0.056396004 76 76 76
-0.94056201 2.7484474 0.04421806 71 71 71
-1.2621121 1.2059525 1.9694753 255 255 255
-1.7222319 4.4355998 1.8613533 170 170 170
-2.5587363 4.4172058 2.3057027 30 30 30
-3.5559297 0.43652329 1.0402573 202 202 202
-1.7837837 4.8171606 0.92969865 107 107 107
-1.6129169 4.3931036 1.2151217 177 177 177
-2.7329712 4.4147367 1.5495344 89 89 89
-0.93436325 1.534237 0.97791868 195 195 195
-2.861613 1.8369069 0.49795932 89 89 89
-2.0728443 2.2840621 0.082564108 75 75 75
-2.6157291 2.0726111 -0.070948727 83 83 83
-2.5644345 2.5892794 -0.0079438733 75 75 75
-2.003474 2.3212197 0.027416941 92 92 92
-2.7228408 2.3749835 0.007009502 75 75 75
-2.1425951 2.4614074 0.04938316 89 89 89
-2.0248399 2.8383706 0.0060273963 80 80 80
-2.7246568 2.8753781 -0.026665214 72 72 72
-2.1704323 2.636569 0.078606419 80 80 80
-1.7994522 3.2649655 0.0024458126 86 86 86
-2.2613006 2.9912524 -0.0053510708 75 75 75
-2.5461559 3.5635748 0.054275211 63 63 63
-2.5126872 2.6998651 0.044735309 70 70 70
-1.4082962 4.8859205 0.40536392 100 100 100
-1.8441225 3.757844 0.027278002 55 55 55
-1.647118 3.5704904 0.023146149 86 86 86
-1.8902504 3.6295824 0.012537117 75 75 75
-1.4815007 3.5751257 0.073556058 83 83 83
-1.7068624 3.5360367 0.001162465 89 89 89
-0.34370142 1.0838721 0.90692604 162 162 162
-1.2190635 0.01243036 0.0068029123 80 80 80
-1.1849245 0.14812063 0.012862976 89 89 89
-1.0083318 0.23480636 0.15017277 77 77 77
-2.0527658 -0.14542282 0.15724725 92 92 92
-1.6918261 0.038737703 0.12761748 92 92 92
-0.42432472 1.8490109 0.93583477 158 158 158
-1.2677118 2.7097831 0.032168325 80 80 80
-1.1652794 2.762136 0.11869281 83 83 83
-1.916646 2.3260629 0.0028262094 92 92 92
-1.3796818 2.4763637 0.044781204 80 80 80
-1.3975033 2.6225367 0.042251404 75 75 75
-0.62142599 1.9652908 0.88926947 103 103 103
-1.1877098 3.1582797 0.010827775 95 95 95
-1.2560533 3.1075234 0.01615959 80 80 80
-1.5756143 3.8945217 -0.18669796 68 68 68
-1.4313761 3.214853 0.059127923 89 89 89
-1.6411942 3.5598824 -0.13734365 77 77 77
-0.96833241 3.1722827 0.024444576 98 98 98
-1.012668 2.872684 0.11453908 89 89 89
-2.8581512 3.5226309 2.1808512 200 200 200
-2.0834739 4.5688405 2.2882118 84 84 84
-2.5649807 4.5209551 1.6019698 159 159 159
-4.08775 1.2239815 1.2441914 198 198 198
-1.7080798 4.5087366 1.2966057 178 178 178
-1.8711753 4.4058819 1.6204844 139 139 139
-2.2054555 4.4429226 1.3220087 61 61 61
-2.5273206 -0.78062654 0.11815261 46 46 46
-2.5779295 0.22822253 0.0023269609 101 101 101
-2.8371446 1.65734 0.053221878 81 81 81
-1.7364056 1.1838416 0.50579345 78 78 78
-1.7066615 3.2956567 0.0096749617 90 90 90
-2.5335572 2.1769707 0.0063952166 84 84 84
-2.1384349 2.8882439 0.12890875 81 81 81
-2.0363266 3.7207756 -0.0059611839 70 70 70
-0.56222546 1.0205399 0.93467796 161 161 161
-0.25717917 1.1631089 0.91045868 183 183 183
-0.4421455 1.0458379 0.92247123 169 169 169
-0.61659557 1.4604623 0.81441814 165 165 165
-0.25418884 1.2022067 0.91032338 169 169 169
-0.33723247 1.4673085 0.9228195 196 196 196
-0.32014734 1.5472395 0.91875255 198 198 198
-0.24994202 1.2494706 0.9195677 178 178 178
-0.22962399 1.3162379 0.92398953 173 173 173
-0.62623423 1.8806164 0.91230744 194 194 194
-0.25867483 1.9744456 0.9131366 191 191 191
-0.31242958 1.9413611 0.89289361 181 181 181
-1.4696674 2.5190063 0.037192997 90 90 90
-1.3553495 2.8744917 0.052431937 87 87 87
-1.1751878 2.5074489 0.087070934 87 87 87
-1.3510567 2.4223454 0.083428316 81 81 81
-0.43440291 3.2148304 0.33849126 101 101 101
-0.81779069 2.8689771 0.024111804 78 78 78
-0.76919776 3.0969512 0.068788104 87 87 87
-0.77291536 4.1075749 0.19693911 63 63 63
-2.7795587 0.67603803 1.9729563 236 236 236
-5.591011 1.0313995 2.0052521 255 255 255
-5.2457852 3.8544626 1.5110809 207 207 207
-1.6837243 4.7239695 2.2093816 112 112 112
-2.539639 4.5255928 1.9677162 187 187 187
-4.3338857 -1.3117999 1.7967232 181 181 181
-3.265748 2.2463956 1.1089197 184 184 184
-2.4370003 1.22358 0.84985542 158 158 158
-1.5677673 4.4848042 1.4832487 100 100 100
-0.95250225 1.5981719 0.81286776 193 193 193
-2.1388302 2.6553195 0.011043663 85 85 85
-2.5378597 3.2286062 0.041445252 63 63 63
-3.0158229 2.3580997 0.0032200769 63 63 63
-1.6574166 3.3991482 -0.0050329012 88 88 88
-2.3471837 4.0003195 -0.036398295 66 66 66
-0.45117995 1.1548666 0.9259854 170 170 170
-0.22440775 1.1823686 0.89920002 168 168 168
-1.0728595 0.2582719 0.05839413 85 85 85
-0.59275472 1.4591976 0.91801214 209 209 209
-0.60781127 1.3865895 0.92966956 176 176 176
-0.20126081 1.3382545 0.9159236 172 172 172
-0.22661114 1.3873243 0.91998422 193 193 193
-0.41096756 1.3026195 0.93006384 184 184 184
-0.50429481 1.2316277 0.9290635 176 176 176
-0.22857934 1.8915811 0.91948014 179 179 179
-1.4438878 3.048764 0.068099014 91 91 91
-1.207124 2.5907466 0.029877838 94 94 94
-1.1485931 2.7450716 0.031848665 88 88 88
-0.85123038 2.8076828 0.045279022 85 85 85
-1.4822729 2.443727 0.056698617 88 88 88
-1.6753759 2.3027363 0.047973331 88 88 88
-1.693157 2.4456749 0.071449094 105 105 105
-1.3662809 3.4307692 -0.17583716 88 88 88
-1.0155483 3.4234028 0.094450168 61 61 61
-3.9316833 0.42310312 2.0228455 240 240 240
-4.2042122 0.5202229 1.5036905 214 214 214
-4.6992068 -1.5455661 1.5936968 177 177 177
-4.1260448 1.3728577 1.2738315 160 160 160
-2.6961648 2.0331678 1.2961495 209 209 209
-3.2808428 2.2743433 0.99526519 180 180 180
-3.4118171 3.502471 0.32755166 68 68 68
-3.4350269 2.5310094 0.37064761 39 39 39
-2.383827 4.8304338 1.3408813 167 167 167
-2.7501185 4.441895 1.4627613 102 102 102
-2.8985538 0.5707987 0.22464901 45 45 45
-1.119814 1.4236268 0.76402032 185 185 185
-1.942395 2.2594037 0.0022081092 92 92 92
-2.3304136 3.4922428 -0.024550442 68 68 68
-1.9088666 2.1442673 0.059225734 76 76 76
-2.1532626 3.0722558 -0.0070565981 85 85 85
-1.0000976 0.087735489 0.020582911 76 76 76
-0.17546017 1.3069713 0.91368639 185 185 185
-0.33065692 1.6443744 0.92205256 188 188 188
-0.327979 1.4815431 0.72235227 209 209 209
-0.35223711 1.6702788 0.67709094 194 194 194
-1.3997858 2.7546957 0.04154807 76 76 76
-0.13763684 1.889964 0.91352373 203 203 203
-0.11396922 2.1305676 0.89018524 167 167 167
-0.10770889 2.070178 0.89472473 171 171 171
-1.095154 2.506979 0.028248247 100 100 100
-1.5421301 2.7948952 0.075283043 92 92 92
-1.2013562 2.9742601 0.078123204 92 92 92
-0.37005079 3.3836157 0.51775479 25 25 25
-1.1235867 3.6634164 0.021575447 66 66 66
-3.5014317 0.40339559 0.99675119 165 165 165
-1.9306531 2.4181137 -0.00048578225 94 94 94
-1.8464075 3.0914214 0.053454157 97 97 97
-1.954809 3.3598287 -0.018255953 94 94 94
-2.9096229 3.7525861 0.0014719919 60 60 60
-1.8132268 2.4614356 0.085626714 91 91 91
-0.42314708 3.7446291 0.79080379 12 12 12
-1.6707408 3.5990031 0.099939041 76 76 76
-0.20949835 1.3062105 0.91956937 171 171 171
-0.36234877 1.7220043 0.65342063 207 207 207
-0.26280618 1.4201553 0.84808624 175 175 175
-0.48601899 1.8442259 0.92961717 185 185 185
-1.6711153 2.5070598 0.0016387657 88 88 88
-0.40938386 1.9390227 0.90843147 193 193 193
-0.11768699 2.1979353 0.88135195 56 56 56
-0.25718436 2.1190917 0.92205852 70 70 70
-0.33864802 1.8946161 0.9192605 182 182 182
-1.0708284 2.8166723 0.010116394 94 94 94
-1.7941691 2.264261 0.015937801 88 88 88
-1.3616976 2.5729873 0.015731689 88 88 88
-1.2733901 2.6416929 0.094379894 88 88 88
-0.85781443 3.2777431 0.084225766 76 76 76
-0.41462383 3.6758959 0.73512644 62 62 62
-1.311615 3.3547528 -0.12821984 76 76 76
-0.85902256 3.0935161 0.044271763 94 94 94
-1.719252 0.97157979 1.988201 255 255 255
-4.0920658 1.0248989 1.4059651 176 176 176
-3.42313 4.5110426 1.6329281 32 32 32
-4.3126841 -1.1386358 1.0860174 163 163 163
-3.5643959 3.2797363 0.67564791 111 111 111
-3.2722082 3.2197938 0.34267682 201 201 201
-3.2858858 3.810909 0.52334207 26 26 26
-3.7517941 2.8437717 0.49118608 19 19 19
-2.0249128 4.7295508 1.5843384 152 152 152
-2.2861791 -0.25289696 0.12940359 81 81 81
-3.0217874 0.71814609 0.16205174 107 107 107
-2.6744366 1.60044 0.13477331 107 107 107
-0.89979029 1.3485984 0.94283122 174 174 174
-2.4914453 2.7910812 0.13473326 73 73 73
-1.924077 2.9235353 0.15581053 87 87 87
-0.1544863 1.2174436 0.88957393 194 194 194
-0.80234027 0.90985656 0.13088149 194 194 194
-0.44243473 1.528717 0.55452406 181 181 181
-0.57236522 1.3258873 0.41506004 197 197 197
-0.80515862 1.4470786 0.4674716 189 189 189
-0.23977101 1.9257056 0.8870216 174 174 174
-0.61024791 2.1353977 0.65922058 78 78 78
-0.14243068 2.1232717 0.88441104 184 184 184
-1.1630431 2.8111 0.041863974 81 81 81
-0.73829198 2.6345117 0.044509646 65 65 65
-1.2783891 2.4662461 -0.001306419 81 81 81
-1.1253369 2.4499497 0.07766258 70 70 70
-1.1555058 3.7942905 0.035482164 45 45 45
-0.85379386 3.3027284 0.016777869 73 73 73
-0.085103139 3.318223 0.86723447 162 162 162
-0.65342969 3.1529467 0.022253331 75 75 75
-4.2556252 0.22570553 1.6091576 142 142 142
-5.3635931 -0.24440688 1.9354887 232 232 232
-4.0940323 -0.25259072 0.96512431 16 16 16
-3.1798458 0.31057623 1.0319332 171 171 171
-3.56847 1.2561283 1.3241181 100 100 100
-3.3157077 1.1141791 0.8276425 197 197 197
-2.2147238 4.840374 1.3867893 195 195 195
-1.5796095 4.5916481 1.0717347 73 73 73
-2.564291 -0.35445842 0.35549301 28 28 28
-2.569505 -0.18383221 0.42518067 90 90 90
-0.88449848 1.1853353 0.79512268 175 175 175
-1.1416136 1.1466511 0.73141199 195 195 195
-2.1060424 2.0731237 0.023214456 84 84 84
-2.0621767 3.6718621 -0.034290556 70 70 70
-2.2635202 3.2126958 -0.018607024 93 93 93
-0.71916246 3.98475 0.96874321 104 104 104
-1.7781086 3.9264994 0.048957106 68 68 68
-0.26243883 1.3653985 0.7987842 197 197 197
-0.38520783 1.1459404 0.91861677 190 190 190
-0.58027858 1.1346339 0.36105502 173 173 173
-0.65028036 1.6752403 0.69200242 171 171 171
-0.81529611 1.2693211 0.099378102 197 197 197
-0.17977343 1.9451429 0.90253627 175 175 175
-0.21443389 1.461015 0.82951862 173 173 173
-1.7368827 0.76593941 -0.2715745 197 197 197
-0.32907882 2.0407629 0.8953948 171 171 171
-0.87834537 2.5934756 0.048105653 75 75 75
-1.7014989 2.3595006 0.059244391 98 98 98
-1.1621782 2.8785319 0.013352151 102 102 102
-0.70784086 2.8428628 0.056075808 84 84 84
-0.79439092 2.5940502 0.031053182 70 70 70
-1.4603162 2.991811 0.060787555 93 93 93
-1.7698097 2.7970114 -0.063648231 100 100 100
-1.4729129 2.932873 0.016398665 87 87 87
-0.86032408 3.0262332 0.13933307 87 87 87
-0.80410975 3.2007136 0.02389222 84 84 84
-0.44575933 3.3900614 0.48323542 44 44 44
-3.6935105 0.034125913 1.3440603 182 182 182
-2.9760725 0.7441842 0.63219821 148 148 148
-2.6041543 1.802415 0.85284382 187 187 187
-3.1582124 1.3259103 0.82119006 187 187 187
-1.9888592 4.4488301 1.0960455 165 165 165
-2.7875512 4.3835597 1.16566 88 88 88
-1.6775614 4.3688722 1.4000542 145 145 145
-0.86349708 1.6524132 0.91382211 173 173 173
-1.8969448 3.4649615 -0.018028621 74 74 74
-2.3037879 3.6122148 0.047994133 62 62 62
-1.6887819 4.5741644 0.013452108 11 11 11
-0.64000118 1.1351545 0.27761501 177 177 177
-1.720193 0.622181 -0.3169657 182 182 182
-0.57726908 1.4065514 0.44798821 182 182 182
-0.50813752 1.5555941 0.45592088 192 192 192
-0.35949513 2.045543 0.92857635 74 74 74
-1.3936481 2.9856133 -0.0014090582 94 94 94
-0.37210506 2.0614405 0.8773877 88 88 88
-0.73668343 2.769872 0.037830289 74 74 74
-0.67974651 4.2358937 0.3457076 27 27 27
-0.34808174 3.4959083 0.26615602 108 108 108
-4.2468958 0.31365344 1.3314677 124 124 124
-2.7099519 0.31643385 1.0817697 178 178 178
-3.8597953 1.0260279 1.0133886 194 194 194
-1.9684597 1.4410235 1.0183582 184 184 184
-3.020457 4.9934607 1.092254 255 255 255
-1.7376699 4.2268944 1.2489004 174 174 174
-2.1725173 4.4517112 1.0251353 60 60 60
-0.90023625 1.7005861 0.93033475 168 168 168
-2.4989402 2.8857663 0.11223894 72 72 72
-2.8968937 3.0872805 0.029790815 70 70 70
-2.1301272 3.2232428 -0.016644005 98 98 98
-2.3754983 3.3177536 0.050560828 65 65 65
-1.4668993 5.7723293 -0.13612378 120 120 120
-1.4298329 4.593904 0.5830518 39 39 39
-0.49010009 1.724422 0.91769654 210 210 210
-0.42032322 1.8686607 0.91700536 210 210 210
-0.46214795 1.7965521 0.91533315 213 213 213
-1.1661302 2.9963379 0.062286016 95 95 95
-1.6406629 2.9969032 0.018482741 98 98 98
-1.2118071 2.7007191 0.0037593201 102 102 102
-1.0228782 2.8967617 0.023320016 106 106 106
-1.1326337 2.4477417 -0.039309267 80 80 80
-1.3988798 2.3274229 0.030147132 80 80 80
-1.3033843 2.4978068 0.024578329 92 92 92
-1.5171064 3.6716104 0.073897175 86 86 86
-0.77263767 3.3761928 0.014933164 62 62 62
-0.9731319 3.5059273 0.021467026 60 60 60
-5.1871009 0.56258655 1.212706 208 208 208
-1.6601783 4.3694229 1.7853841 155 155 155
-2.7853348 0.86548406 0.81868076 159 159 159
-3.7312543 -0.11226281 1.177339 63 63 63
-2.8614969 1.5288346 0.44967085 63 63 63
-4.1042767 1.7476162 0.5943256 178 178 178
-2.5256891 1.43301 0.841223 167 167 167
-3.7685471 3.144804 0.8467322 68 68 68
-2.7037411 0.71279442 0.076100104 45 45 45
-1.6426923 0.99566942 0.25644881 194 194 194
-2.6942179 1.2259884 0.36052096 59 59 59
-2.3237338 1.9137007 0.042665716 73 73 73
-0.72917771 1.6166039 0.92308772 178 178 178
-1.7165072 2.5838604 0.031135734 33 33 33
-1.608904 5.2579851 0.26332575 93 93 93
-0.71378803 0.95938063 0.089828722 208 208 208
-1.0968834 0.90374756 -0.42088246 184 184 184
-0.2242852 1.9783779 0.91267276 186 186 186
-0.86541271 1.47323 -0.079061754 189 189 189
-1.3614211 2.2266836 0.015667196 61 61 61
-0.49191889 1.489465 0.41489154 214 214 214
-0.47343242 1.6826357 0.91414511 191 191 191
-1.3689586 2.3250387 -0.029182915 93 93 93
-1.2697718 2.393481 0.01479059 90 90 90
-0.98626816 3.3147721 -0.50864708 61 61 61
-1.1482481 3.0719659 -0.0079848813 101 101 101
-1.281237 2.7862988 -0.0024001643 84 84 84
-1.6352302 2.4291792 0.01075309 93 93 93
-5.6868248 1.0673391 1.870032 255 255 255
-4.0868759 0.21769892 1.128307 113 113 113
-2.6411779 0.20758203 0.16549593 116 116 116
-1.1181614 1.6484314 0.9020105 201 201 201
-1.7684559 2.0913086 0.029860552 100 100 100
-2.7109532 2.6238842 0.03065097 57 57 57
-0.35379624 1.9714659 0.90979171 186 186 186
-0.27880174 3.3973517 0.50471222 44 44 44
-1.2120074 3.7400489 0.11422848 65 65 65
-0.87344325 3.3828611 0.067543201 68 68 68
-4.3317499 0.40157923 1.3704294 83 83 83
-3.9605718 1.3486873 1.2403455 81 81 81
-2.9537952 4.5597563 2.0367179 81 81 81
-3.4924347 3.3237314 0.92211449 11 11 11
-0.64690417 1.783802 0.89962119 205 205 205
-2.7080295 1.1143599 0.30310267 132 132 132
-0.55846798 1.934739 0.89275724 176 176 176
-1.7226366 2.642087 0.088881664 98 98 98
-1.6142278 2.5807927 0.0020058111 98 98 98
-1.3813624 3.3995633 0.034252103 95 95 95
-1.9461224 3.2353733 0.020354148 98 98 98
-4.5315061 -0.87361038 1.89505 214 214 214
-5.064425 -1.3833464 1.9379272 204 204 204
-5.1004181 -0.69840652 1.6249814 204 204 204
-4.810308 1.1413416 1.7513965 232 232 232
-2.6738369 -0.03588948 0.66435397 234 234 234
-3.0847607 2.1905329 0.2330898 16 16 16
-3.3476338 1.0866303 0.69331223 206 206 206
-0.9798494 1.4317173 0.89805615 177 177 177
-1.9356146 2.8907166 0.033469554 92 92 92
-2.072459 2.912735 0.012576397 89 89 89
-1.2934653 4.6026516 0.67377949 25 25 25
-1.1953545 3.0258815 -0.040617112 111 111 111
-4.5074663 -0.48586428 1.3785902 193 193 193
-4.7018743 -1.2233497 1.7374687 199 199 199
-1.3489779 4.3406906 2.0474517 159 159 159
-2.9113259 0.43549517 0.75218254 225 225 225
-2.9817276 2.1040847 0.49470508 60 60 60
-0.88322228 1.5573211 0.92558259 220 220 220
-2.4686835 1.6571474 0.033325788 96 96 96
-2.6504943 1.5801597 0.070933811 70 70 70
-2.1886261 1.8174765 0.0027509884 112 112 112
-1.6798638 2.1570377 0.070919923 113 113 113
-1.4772844 2.0025146 0.042671736 93 93 93
-2.7889416 3.4217198 -0.0060001654 84 84 84
-2.0814788 2.4669945 0.026144858 81 81 81
-2.2885492 2.6158552 -0.0049351496 93 93 93
-2.4086313 3.8083394 0.060735758 74 74 74
-2.27753 2.86483 0.038828429 74 74 74
-1.5642124 3.1304522 0.067761175 104 104 104
-1.7764409 2.7797606 0.044116613 104 104 104
-1.6114523 2.7172387 0.0084222509 117 117 117
-1.5406841 3.2758689 0.031972703 104 104 104
-2.4227846 2.7038698 0.030663725 84 84 84
-1.3769002 2.6832123 0.076862805 104 104 104
-1.8017797 3.8562305 0.03769153 77 77 77
-1.3491838 4.505415 0.11934792 31 31 31
-1.17936 3.2430322 0.041670557 112 112 112
-0.36391479 3.5613594 0.66460001 19 19 19
-5.7782493 0.38579535 1.595015 237 237 237
-1.4007242 2.1718624 1.6418436 237 237 237
-2.5559809 1.9224017 1.6740957 255 255 255
-5.342308 0.89716768 1.7976488 237 237 237
-5.8398333 0.80382782 1.9214679 255 255 255
-1.8531542 2.0457115 1.7128396 242 242 242
-4.0242906 3.0074592 1.2272286 240 240 240
-2.8939507 3.1020176 1.4388384 196 196 196
-2.7256846 5.0065713 1.2232591 164 164 164
-2.9516995 0.58321619 0.26272112 101 101 101
-2.9443948 2.0325849 0.37263459 43 43 43
-3.8487561 2.8244863 0.28834373 114 114 114
-2.7054923 0.79035127 0.057473715 14 14 14
-2.0951519 1.9595906 0.02258068 88 88 88
-0.78599316 1.7858813 0.88972777 200 200 200
-1.7711385 1.9615191 0.02752107 90 90 90
-0.69304395 1.7513298 0.89593863 222 222 222
-1.6237907 2.2209427 0.026326474 96 96 96
-1.3122157 2.8867397 0.033987638 104 104 104
-2.0465198 3.4600184 -0.040014509 116 116 116
-1.7553329 3.6866274 0.007972951 90 90 90
-1.2880639 3.391891 0.0086922599 116 116 116
-1.2695839 3.2133822 0.041507062 101 101 101
-1.7451792 4.3429422 0.055340167 30 30 30
-1.2576628 3.6472864 0.043273922 83 83 83
-1.323337 2.638633 0.00071864878 101 101 101
-4.3417563 -0.010270759 1.3087829 208 208 208
-4.3945432 0.36492941 1.5181195 155 155 155
-3.7690084 1.5339011 1.7252114 255 255 255
-1.6817552 4.8366446 1.4725595 231 231 231
-1.4122806 4.1772742 1.5089098 173 173 173
-1.573171 3.9537556 2.0234542 167 167 167
-2.6663599 1.0284543 0.37644643 24 24 24
-2.7562411 0.91555816 0.3858707 18 18 18
-3.2971904 1.8615036 0.63720828 195 195 195
-3.7150118 3.74617 0.23007464 49 49 49
-3.4250667 3.3334138 -0.0024212643 67 67 67
-2.803045 2.9417515 0.053199884 77 77 77
-2.8425362 2.8217001 0.022258874 58 58 58
-2.8240075 2.7302406 0.020205613 60 60 60
-2.1804004 4.7143764 0.76299679 40 40 40
-1.8342844 1.8786439 0.033347603 92 92 92
-2.6638787 1.6732507 0.057288226 103 103 103
-2.1481233 2.1221402 0.033175405 108 108 108
-1.5086555 2.1918945 -0.04143298 114 114 114
-2.6537311 1.8552051 -0.031486992 114 114 114
-2.2111571 2.2941201 -0.012268906 97 97 97
-1.5818943 2.1301215 0.026865061 106 106 106
-1.8956923 2.1482017 0.010807748 100 100 100
-2.1589754 1.907936 0.059102532 108 108 108
-2.74771 2.2315111 0.038721856 67 67 67
-1.4779286 2.5871038 0.023240145 103 103 103
-1.242065 3.1300957 0.14883882 106 106 106
-1.2934965 3.2908154 0.051146742 116 116 116
-1.515409 3.832238 0.039092775 80 80 80
-1.6006371 4.0403385 0.060396191 58 58 58
-4.366643 0.3526136 1.6453245 144 144 144
-4.0617561 -0.013488326 1.7601262 215 215 215
-2.0931664 4.8401074 1.9171572 200 200 200
-2.37444 5.0050502 1.5155813 185 185 185
-1.3989848 3.5202711 1.6425636 158 158 158
-2.8905873 0.51460546 0.31397718 93 93 93
-2.9685712 1.8901466 0.29922092 27 27 27
-3.0817549 2.1906006 0.60076195 255 255 255
-3.3400748 1.6305727 0.67273653 255 255 255
-3.7423785 3.1636145 -0.060014609 39 39 39
-3.4406314 2.9587836 -0.087189563 66 66 66
-1.4276276 4.6743569 0.65409547 37 37 37
-1.4120864 4.6630516 0.7522611 39 39 39
-2.5164175 4.8968596 0.8504476 78 78 78
-1.1537336 1.5792961 0.87730044 217 217 217
-1.7113781 1.9392416 0.018162664 107 107 107
-2.0111678 2.0887372 0.010878558 93 93 93
-2.6729574 1.7771071 0.03818005 110 110 110
-2.6415308 1.3921752 0.012195165 96 96 96
-1.9768922 2.0006242 0.021469112 93 93 93
-1.9443805 1.8286413 0.01234066 120 120 120
-1.5256269 2.1302938 0.0002579049 116 116 116
-1.7329699 2.954741 -0.0019907996 116 116 116
-2.1746807 2.5339427 0.05579358 102 102 102
-1.7835104 2.5123014 0.023193594 118 118 118
-1.7462399 2.5533512 0.15697104 116 116 116
-1.3943011 4.1847115 0.039447423 55 55 55
-1.4507753 2.123091 -0.025410656 104 104 104
-0.96997696 4.1938362 0.0027262524 46 46 46
-4.5492187 0.97843641 1.0477532 125 125 125
-2.8647377 5.5673389 1.6185261 173 173 173
-2.2971756 4.842844 1.9383509 180 180 180
-2.9529302 2.0418932 0.61197519 141 141 141
-4.0545111 1.6628488 0.43091106 238 238 238
-3.3410347 1.2079574 1.0120716 183 183 183
-2.9622734 2.0317354 0.93513429 183 183 183
-3.2124882 3.4128869 0.053501662 88 88 88
-2.0871599 1.7199755 0.04397231 96 96 96
-2.2730305 1.59326 0.058703776 119 119 119
-1.6440548 1.9953742 -0.014069443 105 105 105
-2.6991332 2.4482963 0.0083993031 80 80 80
-1.7813174 1.8455185 0.017496999 111 111 111
-3.2139456 1.8801308 -0.39820504 108 108 108
-0.99410218 1.7390529 0.92008597 162 162 162
-1.4015856 3.1129601 0.037704047 114 114 114
-1.5157049 3.3195522 0.04623824 105 105 105
-1.6031352 3.2975132 0.053906139 105 105 105
-1.4093264 3.3582697 0.040712949 99 99 99
-2.0292525 3.6287405 0.0082058264 85 85 85
-2.0971828 3.9429548 0.012622888 64 64 64
-1.5831815 4.1245475 0.038187321 51 51 51
-1.3945279 2.0361063 0.021183427 83 83 83
-1.2211776 1.8743284 0.21446949 93 93 93
-2.5440903 4.2321954 2.1668911 106 106 106
-2.5178368 4.7250438 1.3119934 80 80 80
-2.0009851 4.8509593 1.5560346 175 175 175
-2.8148758 4.6335301 2.1952801 115 115 115
-4.6975112 0.13913593 0.8035298 219 219 219
-2.9239707 0.79870218 0.49511164 164 164 164
-3.7016337 0.76854771 0.39036852 182 182 182
-3.4548571 3.5021727 0.11331873 87 87 87
-2.3590138 5.0202174 1.3410362 196 196 196
-2.0320783 4.8743362 0.99002349 185 185 185
-2.603601 0.62183893 0.034851786 93 93 93
-1.21358 1.4197842 0.68365842 214 214 214
-2.3388507 0.55525774 0.10623985 106 106 106
-1.8286318 1.7932297 0.023782846 103 103 103
-2.5845265 1.4726927 -0.0093175219 109 109 109
-2.7228336 1.4709713 0.032356616 90 90 90
-2.1333139 1.865536 -0.022578839 113 113 113
-2.6035688 1.7271911 0.013298984 109 109 109
-2.3360307 1.6501447 0.0064666229 103 103 103
-2.3862886 1.7168006 0.030951556 113 113 113
-2.4330502 2.3381925 -0.023720745 93 93 93
-1.7388247 3.1713316 0.013526137 113 113 113
-1.5045943 3.5771511 0.048394974 96 96 96
-1.8133696 3.7992105 0.0093161417 90 90 90
-2.3586774 3.2795086 -0.017097477 85 85 85
-2.0611584 3.3808303 -0.0033650442 103 103 103
-1.8765621 3.2682834 0.031051751 99 99 99
-2.7031324 3.0499556 -0.013210063 80 80 80
-2.3829145 3.4245272 -0.03313804 70 70 70
-1.4726441 2.2508843 0.0082841469 106 106 106
-1.4832546 2.7693343 0.02770507 99 99 99
-1.2388734 2.20295 1.7627124 255 255 255
-3.4578478 2.8928523 1.4157832 226 226 226
-2.2346518 4.3990746 2.2127631 99 99 99
-2.1302438 4.5926318 2.2882867 92 92 92
-1.9434572 5.1184325 2.3228977 110 110 110
-2.0253403 4.7784123 1.7433162 174 174 174
-2.651103 0.55326551 0.64687389 187 187 187
-3.8025496 0.58665895 0.8576991 184 184 184
-3.1603591 1.5491933 0.64997941 190 190 190
-3.5261633 3.6231389 0.090790085 110 110 110
-2.3458297 4.7836928 1.0935009 200 200 200
-2.2009227 4.8171353 0.86603457 46 46 46
-3.022974 -0.43469152 -0.66061902 195 195 195
-2.7883375 1.3367149 0.040488359 135 135 135
-2.730607 1.2200179 0.034908768 81 81 81
-2.5863039 2.2576766 0.045968231 89 89 89
-1.8967704 2.487164 0.01124167 110 110 110
-2.0712931 1.6383402 0.040481266 116 116 116
-2.4171035 2.544817 0.0013487891 86 86 86
-2.5683327 2.481267 -0.021121863 89 89 89
-2.9916496 2.0380509 -0.0084489631 71 71 71
-2.1875336 2.0839074 0.042691287 86 86 86
-1.769165 2.3023829 0.046959337 118 118 118
-1.7496299 3.0255644 0.029848691 120 120 120
-2.3436604 2.6925969 -0.0089678811 92 92 92
-2.4055204 3.5029635 0.024852093 68 68 68
-2.0868096 2.7176044 -0.008789544 120 120 120
-1.6780536 1.8101881 0.06640213 116 116 116
-1.6157109 1.7868025 -0.029715661 99 99 99
-1.4539915 2.9156232 0.042991396 102 102 102
-1.3733469 3.491456 0.02651703 86 86 86
-4.4554195 0.16600572 1.8021523 255 255 255
-4.027648 2.4755092 1.9262331 234 234 234
-2.3356643 4.7442784 1.9910874 204 204 204
-2.2782745 4.825706 1.7214109 176 176 176
-1.5884229 4.1164813 2.0599947 185 185 185
-1.7982339 4.6407261 2.3234038 54 54 54
-3.8355386 0.92134506 0.82451081 182 182 182
-2.9368799 0.72494209 0.82791859 175 175 175
-2.9600029 1.7926759 1.1226923 179 179 179
-2.5483344 1.6437851 1.1223128 187 187 187
-2.952477 1.4960562 0.95765686 193 193 193
-3.6587744 3.2447321 0.86865413 12 12 12
-2.3097019 4.8735104 1.1124127 86 86 86
-2.3696103 4.7764125 1.1020274 196 196 196
-2.1597323 4.8830519 1.2661128 169 169 169
-1.9279985 4.7089577 1.2312465 202 202 202
-2.346113 1.1899471 0.069273703 102 102 102
-0.80891836 1.8007566 1.0280815 187 187 187
-1.9790084 1.8177345 0.058796223 118 118 118
-2.3525679 2.0246556 0.0091553284 110 110 110
-1.9490495 1.6811041 0.036062237 113 113 113
-2.6461112 2.0726914 0.0076692062 95 95 95
-1.7781453 2.8597937 0.062898032 102 102 102
-3.2500274 3.413224 -0.062584765 83 83 83
-1.9799762 3.1482518 0.024292644 102 102 102
-1.3260698 4.6291924 0.41536295 61 61 61
-1.3476712 4.7257938 0.73152268 83 83 83
-1.9950846 4.0645213 -0.006739263 67 67 67
-1.4347564 5.0204563 0.38582158 118 118 118
-1.6917678 2.0552034 0.033448335 99 99 99
-1.619675 1.7750384 0.066944353 106 106 106
-1.7163808 1.6540173 0.0086371852 113 113 113
-1.4777707 2.4802279 0.10468077 118 118 118
-1.4158192 2.6562288 0.12308895 102 102 102
-1.5170135 2.6408386 0.088220946 116 116 116
-1.5512782 2.7651949 0.024413701 102 102 102
-1.3969811 4.2449932 0.058729704 32 32 32
-1.2681531 4.052546 0.022908743 54 54 54
-2.3852878 3.0983999 2.1353056 230 230 230
-2.5799668 5.0036883 2.5076296 59 59 59
-2.2725878 4.8157215 1.6279181 176 176 176
-2.1821237 4.7243266 1.7989405 185 185 185
-2.4534905 4.9012156 1.6870661 191 191 191
-2.5363355 4.8392649 1.5827718 174 174 174
-2.2564454 4.901845 2.0991797 201 201 201
-4.2737007 -0.081485674 0.87580198 197 197 197
-5.3605652 2.6669953 -0.27338421 94 94 94
-4.2154207 2.2015595 0.55640376 165 165 165
-2.9788892 4.7599373 0.94407326 209 209 209
-1.7070783 4.7108722 1.2545447 122 122 122
-2.5723176 4.7174239 1.0119877 108 108 108
-2.0676699 4.6584353 0.79823595 57 57 57
-2.049156 4.6661892 0.88165104 63 63 63
-2.7233586 4.8166981 0.50956726 48 48 48
-3.0455673 0.64004034 0.048101958 80 80 80
-2.5530276 0.59240842 0.21331364 101 101 101
-2.3212638 1.3722122 0.084604077 115 115 115
-2.0607848 2.5835552 -0.010786776 115 115 115
-2.935009 1.7898562 -0.016898397 80 80 80
-2.3494794 2.9664669 -0.0062989038 87 87 87
-3.2690125 3.7897964 0.0154072 59 59 59
-2.3838558 3.2207479 0.052236672 70 70 70
-1.9347782 2.364001 0.012983258 97 97 97
-1.8166023 2.5725417 0.028005596 118 118 118
-1.941547 2.1923053 -0.13205826 118 118 118
-1.6468824 2.1502953 0.042505916 97 97 97
-1.5355521 3.4319119 -0.022493605 94 94 94
-1.7374992 2.8786688 -0.0045578522 118 118 118
-2.548027 4.9420104 1.7558011 193 193 193
-2.8235202 4.832624 1.9708353 161 161 161
-2.8674448 0.49914333 0.60833544 150 150 150
-5.1183028 0.11163387 0.53718698 184 184 184
-4.3075662 0.042982209 1.2103559 169 169 169
-3.9524326 0.73926574 0.64114279 190 190 190
-3.3250401 2.0571437 0.70855987 205 205 205
-1.5602227 4.6075177 1.0857667 72 72 72
-2.6043091 1.0693625 0.28927952 107 107 107
-2.6883523 0.87692815 -0.020945553 75 75 75
-2.9320395 0.67664665 0.37548375 20 20 20
-2.8695803 2.5101342 0.033739384 80 80 80
-2.3813131 2.7875681 0.060160216 95 95 95
-2.2027113 2.4095666 0.015093501 103 103 103
-2.1249247 3.7301536 0.030382928 80 80 80
-2.8619533 3.4709921 0.12931627 77 77 77
-2.8249631 3.2201691 -0.12429095 83 83 83
-2.0225859 4.937396 0.25268197 49 49 49
-2.4476371 5.2003798 0.45922339 72 72 72
-1.8315454 4.471468 0.06883996 30 30 30
-2.4045537 4.8240366 0.38572079 40 40 40
-1.6366134 5.0614104 0.71637523 36 36 36
-1.9260308 1.3911871 -0.085980661 95 95 95
-1.9707093 1.5081886 -0.10379577 111 111 111
-1.8863481 2.4034467 -0.021983627 118 118 118
-1.7041545 3.3926947 0.043303069 118 118 118
-1.3278598 4.5877209 0.1826241 59 59 59
-10.893755 -0.90032184 2.2299771 235 235 235
-3.8806472 1.8616154 1.8210995 255 255 255
-2.3680763 5.2748332 2.5273988 55 55 55
-2.4386442 4.7041836 1.8150867 51 51 51
-2.0713556 5.0414338 2.4346945 25 25 25
-3.7344522 1.2206156 0.98305881 189 189 189
-1.7545542 4.6490383 1.7224418 161 161 161
-2.1775746 4.8120022 1.5414909 198 198 198
-1.8688504 4.7286158 1.3063377 199 199 199
-2.1992388 4.6749349 1.5885822 196 196 196
-2.7304041 1.2855264 0.1771903 66 66 66
-2.9818442 0.65726143 0.13902289 95 95 95
-2.4651392 1.465348 -0.034134511 103 103 103
-2.909605 1.8902588 0.48382378 80 80 80
-3.7404606 1.7276024 -0.94473588 103 103 103
-2.6412861 1.6292158 0.015252645 111 111 111
-2.4787149 2.8446391 0.097248547 88 88 88
-2.4916372 1.7783616 -0.0037219569 103 103 103
-2.4693959 2.2973545 -0.015238409 88 88 88
-2.4553561 3.1189222 0.015184159 80 80 80
-2.2757185 3.3273392 0.18080819 86 86 86
-2.3710592 3.0635738 0.019700464 83 83 83
-1.7895317 1.5300117 -0.0058025164 111 111 111
-1.930199 1.435604 7.3269707e-06 121 121 121
-2.1801281 1.2689683 -0.0042976183 123 123 123
-2.0585873 1.5771164 0.065039746 115 115 115
-2.1705737 1.1759504 -0.038660292 29 29 29
-2.1795421 1.3978504 -0.1500175 118 118 118
-2.0691025 1.5370347 -0.2492404 115 115 115
-1.9083283 2.0311894 0.016397055 103 103 103
-2.0843368 3.1361501 0.011580343 103 103 103
-1.782877 3.326333 0.048150536 92 92 92
-1.3237906 4.7271976 0.099176817 15 15 15
-2.5354414 4.7367296 1.6799718 80 80 80
-3.8081152 2.3335488 0.45144188 122 122 122
-4.0605597 4.5237861 1.1818442 25 25 25
-1.5308429 4.4687543 1.1230993 99 99 99
-2.4922128 4.7417154 1.2541379 83 83 83
-2.0097525 4.7476425 1.4449906 176 176 176
-2.7002673 0.89956319 -0.1487143 92 92 92
-2.7449074 1.1459826 -0.13951683 99 99 99
-2.5852695 1.1582654 -0.068757899 103 103 103
-2.6664383 1.0123667 0.050413605 60 60 60
-2.8576446 1.6150669 0.09940546 36 36 36
-2.5230007 2.7168169 -0.049269322 103 103 103
-2.4401152 2.8634074 0.0097897006 103 103 103
-2.5364647 3.6365137 0.077295415 72 72 72
-3.1141479 3.5618453 0.098550074 74 74 74
-2.8130901 3.5951943 0.035874601 80 80 80
-2.3296018 5.3708868 0.06056672 56 56 56
-1.7564579 4.6708074 0.75761259 70 70 70
-1.9163613 4.6543088 0.42668903 38 38 38
-1.8726739 1.6814097 0.022339519 119 119 119
-2.0585017 1.5165811 0.04901379 122 122 122
-2.1113312 2.3384969 0.027204689 99 99 99
-1.8421706 1.9882966 0.1713782 107 107 107
-2.0804553 2.4637918 0.02373248 83 83 83
-2.1900747 1.7227062 0.024699744 111 111 111
-1.6629752 3.4863639 -0.029399637 99 99 99
-1.5625236 3.75126 0.060177442 92 92 92
-1.9285507 3.1940479 6.8719753e-05 122 122 122
-1.9432874 2.8611431 -0.036711697 119 119 119
-1.4818536 4.0067863 0.062124129 48 48 48
-1.9036653 4.7412028 1.7674158 183 183 183
-2.1501501 4.9005461 0.88930023 196 196 196
-1.6746343 4.8064556 1.2322627 131 131 131
-1.8495821 4.8614011 1.6457667 97 97 97
-2.1888611 4.7016091 0.88070077 75 75 75
-2.1712716 4.9551759 1.616883 159 159 159
-2.517451 1.5617359 0.0034213618 97 97 97
-2.8329706 2.4106202 0.050694998 81 81 81
-2.4309402 1.8526453 0.0320003 93 93 93
-2.1648378 3.6530712 0.060536917 87 87 87
-3.1838017 3.31039 0.019832786 84 84 84
-2.9503765 3.2066681 -0.02725983 84 84 84
-1.6021307 4.5905204 0.3055895 50 50 50
-1.5552797 4.7159414 0.7317577 59 59 59
-2.1021342 4.8813925 0.57522285 59 59 59
-1.8419354 4.5788898 0.33689588 48 48 48
-2.3287547 4.9801307 -0.037628654 34 34 34
-1.8703706 1.3336858 -0.01762462 93 93 93
-2.6080215 1.1304921 -0.49973941 118 118 118
-2.1857944 1.2236327 -0.14006054 97 97 97
-2.2252908 1.5264676 -0.42541778 114 114 114
-2.2734773 2.196593 -0.0050005955 106 106 106
-1.9617393 3.0267508 0.0037261203 101 101 101
-1.3538272 4.5749049 0.22344792 42 42 42
-1.5666003 4.5209789 0.026838835 38 38 38
-1.8377545 4.6617041 1.9639446 174 174 174
-4.032361 2.8841136 0.23872077 127 127 127
-3.7098546 4.5364804 1.3780643 66 66 66
-2.4683883 4.7756143 1.2757537 210 210 210
-2.5208538 4.610054 0.79416865 54 54 54
-2.4876869 1.1391373 0.017651495 77 77 77
-2.5239422 0.84047598 -0.0071318191 105 105 105
-2.537055 1.3539636 0.012756999 105 105 105
-2.489219 2.7510874 0.097171955 100 100 100
-3.5046992 3.4133773 0.18070149 83 83 83
